# .PCD v0.7 - Point Cloud Data file format
VERSION 0.7
FIELDS x y z
SIZE 4 4 4
TYPE F F F
COUNT 1 1 1
WIDTH 1510
HEIGHT 1
VIEWPOINT 0 0 0 1 0 0 0
POINTS 1510
DATA ascii
6.9864016 -3.5010226 -2.0736427
7.4869213 -3.330018 -2.0330136
7.9820495 -3.1676195 -1.9306459
8.321909 -2.9703462 -1.8248603
-2.0059323 -4.4421434 -0.99918061
7.9626369 -2.7218549 -2.0898423
8.3482676 -2.5922134 -1.9284141
8.6469679 -2.3593152 -1.7751112
-2.3000829 -3.7823575 -0.78659153
-2.1172588 -3.9588158 -1.0018985
7.0751266 -2.4018745 -2.0342827
7.304389 -2.2407191 -1.9748905
7.7633448 -2.1645143 -2.0328848
8.3090219 -2.0991147 -1.9802711
8.6415548 -2.0093246 -1.8013861
-3.4109476 -3.5443628 -0.6947332
-3.0935252 -3.5938535 -0.83985168
-2.5846398 -3.6273313 -0.92615646
-2.2419925 -3.6669731 -1.0284122
7.3024616 -1.7738786 -1.8456357
7.778317 -1.7121444 -1.7640777
8.2078915 -1.6219976 -1.8033268
8.5789127 -1.6607808 -1.7437618
-4.0456409 -3.0784016 -0.68759137
-3.6482813 -3.2529271 -0.84449655
-3.3015335 -3.3337164 -1.0335894
7.2981749 -1.2894957 -1.813107
8.2025614 -1.3760166 -1.6540761
-4.6119909 -2.789809 -0.65802062
-4.3345218 -2.9014442 -0.86368769
7.2662964 -0.7892229 -1.8757174
7.3699574 -0.7282967 -1.6398926
-5.0685463 -2.2414699 -0.47354025
-4.9033909 -2.4024267 -0.69254202
7.1655827 -0.28973025 -1.9114871
7.3201628 -0.26422483 -1.6746409
-5.2733541 -1.9180539 -0.56922579
-5.078629 -2.0048599 -0.80350119
7.1098375 0.17052527 -1.897572
7.2173681 0.23157485 -1.6637253
-5.4390998 -1.4807768 -0.58054465
7.019145 0.77090257 -1.89169
7.1579409 0.69193399 -1.6623249
-5.5522833 -0.98539692 -0.57005048
6.897089 1.2243483 -1.7285137
7.0694356 1.0637734 -1.5705049
-5.5749474 -0.51996428 -0.51961309
6.6929874 1.6792978 -1.6465867
-5.5732045 -0.022591814 -0.47547048
-5.4053178 0.13571341 -0.70377213
6.2549047 2.2289951 -1.6898453
6.4454823 2.1056261 -1.5862103
-5.5542212 0.38874209 -0.34150988
-5.3647246 0.60727596 -0.54456121
6.0544014 2.5501244 -1.5616524
-5.657609 1.1529882 -0.28282243
-5.3112807 1.1151712 -0.49209732
-5.0776768 1.1841823 -0.71070582
5.5169029 3.1181281 -1.4812535
5.7889018 2.9296963 -1.4245746
-5.8727798 1.5048838 -0.30991042
-5.4608407 1.5393145 -0.60369426
4.8979316 3.4834652 -1.4363852
5.2473774 3.3392556 -1.3935359
-6.2681665 1.9572393 -0.19334774
-5.9919605 1.9631703 -0.40886533
-5.6634474 2.0503755 -0.60445273
-1.0789425 2.9740674 -0.90810364
-0.63978165 2.9676156 -0.88535613
-0.16319488 3.0877869 -0.90668029
0.30704689 3.2486548 -0.99836868
0.71634042 3.3475239 -1.1506486
3.8101854 3.8705139 -1.3880746
4.2784214 3.7874479 -1.3080673
4.6930728 3.6645916 -1.2682471
-6.1147971 2.4390349 -0.3484695
-5.7383418 2.5806282 -0.59604418
-3.1493564 3.0177007 -0.81144029
-2.6814971 3.0804193 -0.71272284
-2.1603951 3.1152844 -0.71842164
-1.6395347 3.1177018 -0.77092355
-1.2465212 3.0892448 -0.72285444
0.4916833 3.3892934 -0.8050223
0.80990058 3.5119562 -0.92962235
1.2482036 3.7023818 -1.0466539
1.7605659 3.8828564 -1.068941
2.2082345 3.9644973 -1.0815448
2.7055068 4.0654936 -1.124414
3.2231629 4.0421762 -1.2157798
3.6868136 4.0118141 -1.1498693
-6.0767307 2.90238 -0.25620693
-5.7452302 3.0140927 -0.51483911
-3.5964458 3.5280983 -0.78270739
-3.2452133 3.4639714 -0.69290036
-2.9025774 3.4765573 -0.49412555
-6.0514131 3.2514033 -0.17897944
-5.792872 3.4966578 -0.42875487
-3.7448356 3.9179375 -0.7282235
-3.3659256 3.9246669 -0.49996603
-5.8654928 3.9572849 -0.32796073
-5.5854125 4.1025581 -0.57335097
-3.9115651 4.350081 -0.5384137
-3.4752872 4.3702364 -0.37965393
-5.835681 4.5632296 -0.34236974
-5.6490927 4.3800364 -0.57918644
-4.3137479 4.8709397 -0.56358129
-4.0125394 4.811883 -0.36643326
-3.4698708 4.9569817 -0.37346178
-3.0189183 5.0857477 -0.51404643
-2.5467665 5.1650743 -0.57232738
-2.1161048 5.3580651 -0.57172954
-5.8509793 4.9926143 -0.35662019
-5.8023405 5.2224312 -0.30571669
-4.8650808 5.4371271 -0.22836165
-4.5990915 5.2839899 -0.39091271
-3.8158491 5.1956291 -0.26807845
-3.5690596 5.4688315 -0.41843086
-3.1361964 5.5348873 -0.68064564
-2.6441085 5.4399757 -0.78794056
-2.0226486 5.5239744 -0.7503165
-1.6307744 5.7239108 -0.69127387
-1.2042464 6.0212693 -0.73085499
-5.6102147 5.5100293 -0.30998784
-5.1350365 5.6229424 -0.35706067
-4.8758383 5.5350714 -0.50683379
-3.5935347 5.9177938 -0.4018352
-3.3378615 6.0093122 -0.65577471
-1.012017 6.1838078 -0.65982628
-0.7101689 6.458684 -0.7398138
-0.41224343 6.6399903 -0.91644841
-3.5578694 6.3065376 -0.36130762
-3.3512418 6.4875278 -0.57772636
-1.7596564 6.7885265 -0.5181855
-1.3150532 6.8176894 -0.66776568
-0.81603032 6.8206043 -0.73702759
-0.3637253 6.8552895 -0.91343671
-3.236469 6.9133153 -0.48066264
-3.0232098 7.200129 -0.5659222
-1.8298335 7.2380257 -0.6092726
-1.5428929 7.0771546 -0.84253055
-2.7938206 7.4639735 -0.49148494
-2.5163801 7.7074628 -0.54166824
-1.9394665 7.7866187 -0.46195894
-1.6512066 7.8631616 -0.72407174
-2.3092802 7.981801 -0.74385655
-1.9823847 8.1131105 -0.63036817
-1.6409335 8.2628355 -0.73174888
-3.2804039 -6.5169687 -0.41164082
-3.0415566 -6.5494423 -0.50728834
-2.490145 -6.4983287 -0.56171066
-2.023957 -6.4140859 -0.56504256
-1.5355172 -6.3208966 -0.64966381
-1.0345652 -6.2291822 -0.68433243
-0.53279263 -6.1344509 -0.72139871
-0.10297398 -6.0539904 -0.72219408
4.0621862 -5.213088 -1.0161203
4.3723073 -5.2050228 -1.1103165
4.8554873 -5.111043 -1.1847224
5.3283706 -5.0130677 -1.2172196
5.7958498 -4.9158921 -1.2444887
6.2017293 -4.8388405 -1.1425493
-3.3439023 -6.331439 -0.38531142
-3.2623966 -6.1142707 -0.539612
0.48535657 -5.4774942 -0.93979901
0.84529108 -5.4227252 -0.81305271
1.3463805 -5.3279629 -0.87722355
1.8192097 -5.2439256 -0.8662141
2.3168802 -5.1405845 -0.9840973
2.7936156 -5.0437322 -0.95788962
3.3283114 -4.9342265 -1.0480387
3.7644117 -4.9615159 -1.0915567
4.0887203 -5.1034036 -1.2708322
4.995832 -4.9936876 -0.96137172
5.2160935 -4.8956242 -0.98445016
6.3088384 -4.6721578 -1.3781871
6.7765861 -4.4808655 -1.3831108
7.1979947 -4.2593822 -1.4350507
7.5491848 -4.1408229 -1.3107637
-3.1153448 -5.7028713 -0.40100843
-2.8027549 -5.4137421 -0.58019608
7.69836 -3.8837574 -1.4919472
8.0686226 -3.600837 -1.4438117
8.3758812 -3.475245 -1.2855709
-2.6285748 -5.2521048 -0.43896598
-2.2216413 -4.9422607 -0.51385099
8.1550751 -3.3664188 -1.6519129
8.5272322 -3.1249907 -1.4843256
8.8231621 -2.9143932 -1.3100102
-2.1337149 -4.4874759 -0.46212655
-2.1274703 -4.3241248 -0.6829682
8.622736 -2.7577889 -1.6527702
8.8538857 -2.5087807 -1.4721599
-2.354342 -3.9272926 -0.43107855
-2.1762168 -4.0531235 -0.67026955
8.9166737 -2.0178597 -1.491327
-3.4748037 -3.6320436 -0.31667107
-2.9981511 -3.7602212 -0.38919228
-2.5904682 -3.7666061 -0.611624
7.6207204 -1.5236337 -1.5632842
8.4016714 -1.3786852 -1.6352823
8.8018322 -1.5205871 -1.4878485
9.0689268 -1.6316565 -1.2917986
-4.0660691 -3.3105323 -0.24073748
-3.7370434 -3.4415836 -0.45687991
7.6632657 -1.2136896 -1.3821236
8.1827974 -1.1287344 -1.4038162
8.6636057 -1.0681531 -1.3269222
-4.9329829 -2.7453911 0.035322681
-4.6356759 -2.8714912 -0.19793938
-4.3140726 -3.086324 -0.23559456
7.5534062 -0.73168308 -1.2837001
8.1604557 -0.89693028 -1.1416453
-5.0867825 -2.459868 -0.11769791
-4.9085226 -2.5909479 -0.31239796
7.4866891 -0.24467389 -1.28926
-5.5664096 -1.8599179 0.1250018
-5.3149719 -2.0387878 -0.11617289
7.3754158 0.22987063 -1.2612505
-5.675189 -1.5333587 0.06619896
-5.5764318 -1.5105934 -0.18423687
7.3036294 0.71679288 -1.2384106
-5.7271495 -1.0670105 0.16161628
-5.6462607 -1.0477294 -0.093543813
7.1641569 1.1867951 -1.2075726
-5.8126674 -0.66662693 0.13584848
-5.7320042 -0.55079514 -0.083104834
6.8709331 1.7682137 -1.1946318
7.0217142 1.556511 -1.0969417
-5.7362113 -0.037072286 -0.0023369044
6.6386948 2.1700063 -1.1451938
-5.6638417 0.4835375 0.0012636632
-5.5305324 0.74972773 -0.19059904
6.1885977 2.6814673 -1.1011968
6.4078507 2.4533367 -1.0714054
-6.0781403 1.0682775 0.25949621
-5.7879839 0.94249678 0.046320245
-5.4883876 0.90903139 -0.20260353
5.9009552 3.0096996 -1.0157146
-6.2752395 1.4399441 0.14948966
-6.0021906 1.3210372 -0.076467022
5.0467854 3.6035752 -0.99495167
5.3983836 3.4303691 -0.94455248
5.7295775 3.2508972 -0.827272
-6.3866601 1.8571664 0.11899449
-0.97328907 3.067791 -0.57718331
-0.60359353 3.0834513 -0.41388941
-0.18871988 3.1891127 -0.48623115
4.3797417 3.9339793 -0.91137522
4.8048482 3.7652247 -0.83989316
-6.4303927 2.3231027 0.14954807
-6.313508 2.5686224 -0.06222038
-2.506459 3.2455378 -0.32144463
-2.1462715 3.2305884 -0.19076289
-1.6680602 3.2194932 -0.30831575
-1.1452031 3.1660492 -0.30354434
-0.78441834 3.1251659 -0.18720578
-0.07316716 3.2673907 -0.32259291
0.31594598 3.4141853 -0.43444067
0.79384106 3.6386964 -0.48296332
1.2851853 3.855382 -0.52085441
1.7171295 3.995822 -0.63304013
2.2493844 4.1288433 -0.74049461
2.7825341 4.221334 -0.7555601
3.2497518 4.2378211 -0.7373417
3.7515161 4.1624308 -0.76281279
4.1845832 4.0606651 -0.72813803
-6.4825773 2.8490593 0.28343731
-6.2887721 2.945143 0.02865614
-2.6841822 3.5535619 -0.16789167
1.8623486 4.0922089 -0.39038849
2.262974 4.1850653 -0.52027619
2.7094929 4.2617054 -0.55692804
3.1098692 4.3061028 -0.50411922
-6.4614763 3.2265847 0.36945689
-6.2602181 3.4134438 0.12739564
-3.1500914 4.0591245 -0.26016408
-2.9103215 3.9840016 -0.072229847
-6.197463 3.8901682 0.22530507
-6.0540056 3.9815266 -0.027248815
-3.248266 4.4903255 -0.25332117
-2.9284151 4.5694337 -0.056173369
-2.6467714 4.7764664 0.055841431
-6.2230268 4.428545 0.3070749
-6.0575175 4.524251 0.051965669
-4.0953922 5.037261 -0.20759837
-2.9772549 4.791461 -0.30217963
-2.4502745 5.0016418 -0.094975993
-2.0812571 5.32583 -0.18906824
-6.2224321 4.7857151 0.4098084
-5.9474974 4.966197 0.1688074
-5.7012463 5.2249432 0.18040897
-4.8568888 5.4060855 0.16898938
-4.5363655 5.3518391 0.090335295
-4.0762043 5.3613796 -0.073144332
-1.9394476 5.6418724 -0.0071311146
-1.6419244 5.8341975 -0.22496791
-1.3249387 6.0594163 -0.37594932
-5.4552727 5.3898611 0.16646497
-5.1198182 5.4532733 0.12413986
-4.0048199 5.7706375 0.1395915
-3.8052962 6.0005136 -0.060583577
-2.4330394 6.2711787 0.17058058
-2.1973534 6.3281589 -0.0014870018
-1.6174664 6.2644448 -0.039713606
-1.2017008 6.3840408 -0.27535254
-0.91788667 6.5350361 -0.4220649
-3.6686127 6.3200126 0.040798321
-3.4491985 6.5715499 0.051072627
-2.216819 6.6298776 -0.082717791
-1.7788928 6.5671682 -0.30902147
-3.2102551 6.872828 -0.038710907
-2.8142769 7.0914845 0.063467205
-2.3068192 7.1134386 0.0023200661
-2.033237 7.3037939 -0.21995251
-2.752593 7.3769293 -0.21712016
-2.3900027 7.5322161 -0.17910622
-2.0391178 7.6386318 -0.23878466
-3.2525613 -6.5140867 0.099443749
-2.9854743 -6.5528288 0.015252098
-2.4600475 -6.502934 -0.042113081
-1.980366 -6.4245615 -0.10188507
-1.4822201 -6.3416586 -0.11002086
-0.99644417 -6.2246351 -0.17782922
-0.5015524 -6.1131668 -0.21820082
-0.019480512 -6.0566893 -0.2623089
0.39859337 -5.9907174 -0.22726201
4.0026798 -5.2737412 -0.59520179
4.327291 -5.226263 -0.66966778
5.9183617 -4.9188037 -0.84432107
6.3502593 -4.840157 -0.83134156
6.7154317 -4.7488852 -0.73592538
-3.3077497 -6.3320503 0.059841976
-3.2307761 -6.0856161 0.12322189
-0.79624873 -6.0214562 -0.019992143
-0.53399593 -5.9484115 -0.012570053
1.0330728 -5.430603 -0.37243617
1.3952734 -5.3603225 -0.35107213
1.9119993 -5.2570257 -0.42150867
2.3668823 -5.1689029 -0.43430227
2.8843486 -5.0628557 -0.50722617
3.3597097 -4.9988379 -0.51870632
3.7269492 -5.1234002 -0.6145007
4.5635424 -4.985404 -0.72179943
4.708231 -4.9832234 -0.86366028
5.4676232 -4.8650794 -0.94725734
5.769465 -4.8350735 -0.7218861
6.8329778 -4.6700573 -0.8873654
7.280622 -4.4354463 -0.89906055
7.7259822 -4.1526389 -0.93279845
-3.0656807 -5.6740251 0.061031058
-2.7965944 -5.4343014 0.19192885
8.1829052 -3.7826471 -0.97057658
8.5300703 -3.472224 -0.96687728
-2.6120481 -5.2522612 0.026150122
-2.1367512 -4.9423952 0.024889514
8.7208328 -3.1977854 -1.0483708
8.9507113 -2.9414852 -0.9807654
-2.0724776 -4.632637 -0.10893206
-2.0011106 -4.4191985 0.052198932
9.1081142 -2.5202475 -1.0427125
9.2219143 -2.2610373 -0.87835115
-2.8120592 -3.9085877 0.1103632
-2.353502 -3.9953158 0.044987366
-2.0468428 -4.1431756 0.12362312
9.1243639 -2.1246622 -1.1640475
9.228076 -1.9424531 -0.99465519
-3.8003776 -3.6189725 0.24088718
-3.4424658 -3.7839355 0.16529782
-3.0712314 -3.8519433 0.048351511
9.1899042 -1.4736313 -1.0001864
-4.3229766 -3.2350523 0.37678874
-4.0849724 -3.4206238 0.22898842
8.856864 -0.88418823 -1.0417368
9.0590906 -1.050348 -0.92692238
-4.9107475 -2.7954929 0.3772288
-4.6352592 -3.0234842 0.26921153
7.7632413 -0.66224843 -0.82803565
8.1672621 -0.74373037 -0.83694082
8.6695356 -0.71392852 -0.83687478
-5.1780157 -2.5085161 0.36878037
7.6235876 -0.2390229 -0.80053645
-5.5552011 -1.8718226 0.42484176
-5.3866696 -2.1250875 0.40067393
7.5254745 0.23933394 -0.77417302
-5.7430644 -1.5555649 0.45340061
7.4146409 0.71527445 -0.74690157
-5.7961469 -1.0884638 0.47233295
7.2899275 1.1893737 -0.7182849
-5.8927183 -0.62419701 0.49716401
6.9268823 1.9014138 -0.75836724
7.0763898 1.6754855 -0.66272545
-5.8934865 -0.13888334 0.6034134
-5.8260732 0.0025001913 0.39894521
6.7902131 2.1523132 -0.63600653
-5.8152795 0.40998727 0.5215838
6.267405 2.777983 -0.58772254
6.4858727 2.5475008 -0.5959174
-6.1818328 0.92552811 0.59265828
-5.8795853 0.71660084 0.49141556
6.0303593 3.0189135 -0.5135352
-6.5966105 1.3830259 0.82652527
-6.467237 1.3326869 0.57575071
5.4825644 3.4889929 -0.45068944
5.7663817 3.2770026 -0.46673113
-6.6911125 1.7771871 0.84667331
-6.5586963 1.8095442 0.58540285
4.5416226 3.9967172 -0.37059712
4.8393331 3.8627188 -0.35703897
5.1852756 3.683351 -0.35802382
-6.7217875 2.1170366 0.86146587
-6.6307106 2.2964506 0.63603002
-2.0306864 3.275665 0.25689706
-1.5966854 3.2584331 0.22126035
-1.0916011 3.21611 0.19255377
-0.59764367 3.1577508 0.14294548
-0.10334699 3.2988906 0.10989097
0.36043519 3.5099635 0.044195786
0.83143669 3.7247441 0.013226107
1.2609653 3.9026124 -0.041736737
1.5797825 4.0140214 -0.23901282
3.4358947 4.3115945 -0.25797772
3.7978401 4.24265 -0.25285423
4.2819624 4.0985084 -0.3027246
-6.6605654 2.8314486 0.6771692
-2.5102167 3.6113167 0.30357635
-2.3233352 3.4330983 0.31788945
1.5014551 3.9979625 0.089460991
1.799235 4.0939369 -0.042748928
2.2709448 4.2312665 -0.10104822
2.7511528 4.3174639 -0.15536575
3.1888793 4.3367295 -0.15432106
-6.5218701 3.3317382 0.69362444
-6.4508672 3.5017521 0.4779858
-2.7342527 4.0175853 0.36411667
-6.4819379 3.617521 0.88856125
-6.3946648 3.8637943 0.67365324
-2.8083148 4.5646935 0.36533833
-6.6104178 4.2945995 0.92913854
-6.4371638 4.4168997 0.6731289
-2.7190614 4.9026284 0.5744642
-2.4861422 5.1050458 0.35913068
-6.3764729 4.8077316 0.76675504
-5.9671059 5.0839472 0.72164249
-5.6401978 5.2582364 0.62646157
-4.8185754 5.4087105 0.49137557
-4.5342026 5.4466262 0.47789896
-2.4951141 5.5658331 0.50199318
-2.1479743 5.7067056 0.24113482
-5.4452667 5.3307676 0.72377145
-5.0389972 5.4084945 0.64792722
-4.5136151 5.4779749 0.71626908
-4.0426183 5.7193027 0.56278419
-3.6638985 6.0333738 0.56656867
-3.0467103 6.0709496 0.67669499
-2.6125214 6.0791497 0.4288592
-2.0630002 6.1093168 0.22208129
-1.8051775 6.2435617 0.12529781
-3.5811446 6.2530684 0.41173705
-3.1672585 6.4167795 0.47283316
-2.688206 6.5337439 0.36490062
-2.450012 6.7073402 0.23849887
-3.0838816 6.7651005 0.25533211
-2.782006 6.8191094 0.27467859
-2.4748988 6.8554015 0.22251903
-2.8510892 -6.5083551 0.45276976
-2.4317045 -6.4984498 0.46588582
-1.9192569 -6.4293346 0.3711077
-1.4731058 -6.3616767 0.40213367
-1.1234077 -6.1716471 0.18625851
0.13806553 -5.9793692 0.072387651
0.52044976 -5.9696307 0.1987839
0.86468881 -5.9001713 0.20427507
3.9711854 -5.299047 -0.10427518
4.3237844 -5.2906609 -0.14801727
6.0580711 -4.8562131 -0.45949167
6.3730235 -4.8642931 -0.35573334
6.8026834 -4.7616854 -0.33343172
-2.9701846 -6.2402434 0.49341065
-2.6890311 -5.9665351 0.71153021
-0.93764669 -6.0161066 0.11178882
-0.28340513 -5.9208002 0.026968583
0.032917097 -5.863637 0.18151623
0.29967624 -5.8507557 0.37003148
1.1535388 -5.4588757 0.190998
1.4359012 -5.3958769 0.12579826
1.9239643 -5.2908225 0.077917144
2.3981016 -5.1985593 0.059707433
2.8956892 -5.0983191 -0.0056601316
3.4338253 -5.0511117 -0.058448121
3.7370718 -5.2110071 -0.057471737
6.0482311 -4.8087792 -0.32448292
6.1697359 -4.8197308 -0.11377136
7.0168552 -4.6791792 -0.40908945
7.3184977 -4.5222864 -0.39802641
7.8273654 -4.1598988 -0.39891547
-2.9037228 -5.8127356 0.39072233
-2.6117263 -5.5947776 0.50952983
-2.188674 -5.3885942 0.61747754
8.2413435 -3.8556688 -0.45981866
8.5977192 -3.537735 -0.50850052
-2.411463 -5.2455444 0.25526088
-2.0865064 -5.1674905 0.40299016
-1.7311182 -4.8877163 0.48581707
8.8457584 -3.2518895 -0.52312416
9.0560522 -2.9738848 -0.53388107
-1.710659 -4.4225073 0.4312526
-1.4461153 -4.4106207 0.67824477
9.230051 -2.6394043 -0.53962213
9.2928314 -2.4056232 -0.53777027
-2.8333004 -3.982168 0.60643083
-2.3235719 -4.0299668 0.5325315
-1.8427808 -4.1103954 0.52018714
9.3592644 -2.0301855 -0.5313127
-3.7625306 -3.6575055 0.67079735
-3.3898091 -3.8587539 0.64188296
-3.0809038 -3.9118598 0.36860368
9.3567572 -1.4600379 -0.51193947
-4.3500767 -3.2583733 0.75527972
-4.0250878 -3.4657731 0.74439991
9.1858006 -0.96860498 -0.48023123
-4.8604827 -2.7704499 0.83308917
-4.6683021 -3.0403154 0.81823069
7.8522568 -0.63499409 -0.32146966
8.1976318 -0.62280792 -0.32391512
8.7061357 -0.60396177 -0.38098907
9.0238495 -0.73573154 -0.3857367
-5.1269507 -2.5232289 0.86616546
7.7054219 -0.28824371 -0.31419784
-5.4939375 -1.9094193 0.95343614
-5.41223 -2.1559918 0.89071244
7.5877786 0.22552665 -0.27927136
-5.7469783 -1.586843 0.94376737
7.4649935 0.69806504 -0.25104231
-5.8618684 -1.1348846 0.99202353
7.33144 1.1702754 -0.22144429
-5.9513822 -0.65248734 1.0030897
7.0052438 1.8763857 -0.014098153
7.1151004 1.6721466 -0.19925706
-5.9433417 -0.10741042 1.0195366
6.838429 2.1354191 -0.13912599
-5.8749509 0.24108656 1.0738993
-5.8478489 0.43591219 1.0090377
6.346406 2.7613523 0.074417219
6.5281329 2.551811 -0.10548167
-6.5001712 0.97063953 1.2570968
-6.2127004 0.79402632 1.0573308
6.1054616 2.9904213 -0.0058300346
-6.636662 1.2951554 1.1287615
5.5347528 3.4942462 0.049503669
5.8137984 3.2711995 0.032852784
-6.7620897 1.7521485 1.1546081
4.9184213 3.8726647 0.14441626
5.2669787 3.6786652 0.095703378
-6.7938681 2.2303288 1.1728789
-1.9435704 3.2700901 0.78153533
-1.56286 3.2349417 0.71802449
-1.0416603 3.2091498 0.69037271
-0.54196882 3.1632483 0.64215422
-0.07221885 3.3068495 0.59011668
0.41198736 3.5332487 0.53814852
0.89161021 3.7518408 0.52168703
1.2440819 3.9035757 0.43455476
3.8192077 4.2591314 0.25440007
4.3695641 4.103641 0.19358666
-6.7993097 2.5998676 1.2655697
-6.7204008 2.8596001 1.1586857
-2.4466972 3.683126 0.78119677
-2.2317989 3.4718103 0.81137377
1.455724 3.9764342 0.49611211
1.8139343 4.0995741 0.46046329
2.2965758 4.2383623 0.39790756
2.7899249 4.3364315 0.36170781
3.2889235 4.346776 0.3163954
-6.6018267 3.3062892 1.1891531
-2.6304314 4.0122519 0.85564011
-6.6272035 3.7908065 1.2066777
-2.8514888 4.5158005 0.89487022
-6.8059707 4.3153625 1.2437625
-2.8993859 4.985158 0.92049712
-6.7130671 4.6839142 1.339352
-6.4130144 4.89224 1.2274537
-6.0175714 5.1268835 1.2342726
-3.3463883 5.5038195 1.1286016
-2.9523728 5.4679298 0.87951845
-5.7780023 5.2350669 1.2590529
-5.4521165 5.3417001 1.1776803
-4.959476 5.4408598 1.1405274
-4.4772086 5.5089417 1.0815105
-3.9921405 5.6001263 1.0643356
-3.5702999 5.7371526 0.9474718
-3.0907209 5.8870549 0.78843528
-2.3468156 -6.4583678 0.91120297
-1.8879211 -6.4376111 0.89862877
-1.4533498 -6.3919387 0.89873165
0.59251457 -5.9694896 0.68280363
0.90995145 -5.9147778 0.65259153
4.0651011 -5.2977085 0.36917329
4.4623523 -5.2744222 0.3647964
4.8781953 -5.1533499 0.51726407
6.1601515 -4.8789258 0.27354354
6.4541588 -4.861371 0.15937932
6.7408051 -4.7831149 0.082629368
-2.7135105 -6.316071 0.79969412
-2.4581811 -6.1522055 0.95995122
-2.1300151 -5.9180951 1.1327064
0.40171742 -5.845037 0.56064153
1.1430775 -5.625608 0.74287444
1.4799057 -5.419364 0.59318215
1.9577159 -5.317688 0.60682255
2.4674928 -5.2138143 0.51863563
2.9290488 -5.1254091 0.52429783
3.4636905 -5.0502009 0.41732305
3.8176291 -5.16712 0.48023099
6.0340881 -4.8012962 0.18293555
6.4420047 -4.8196936 0.21017323
6.9558787 -4.6729441 0.15277882
7.369195 -4.4604416 0.071625575
7.7868404 -4.1944842 0.070732698
-2.3851578 -5.7272134 0.8075648
-2.0118866 -5.5771818 0.93736678
-1.6130136 -5.3326898 0.98912799
8.0100727 -4.0369358 0.15809657
8.2691355 -3.8500569 0.052430972
8.6349096 -3.5401328 0.0023335665
-1.5065186 -5.0704412 0.79807353
-1.3030965 -4.8314548 0.9395256
8.8810825 -3.2761204 -0.024853542
9.0917339 -2.9990909 -0.035797879
-1.3269961 -4.3874016 0.9530347
9.2704945 -2.6597745 -0.041433528
9.3359098 -2.4251921 -0.039476797
-2.7562289 -3.9780052 1.0428761
-2.300076 -4.0164618 1.0472591
-1.5256138 -4.1215911 1.1832709
-1.4900937 -4.127718 0.85793084
9.3933516 -2.0518701 -0.032044932
-3.7092659 -3.6653926 1.1738049
-3.33763 -3.8449228 1.1418034
-2.9567163 -3.914655 1.2470081
9.3841658 -1.4835527 -0.010715529
-4.3241277 -3.2569039 1.2451851
-4.0037842 -3.4318173 1.2320044
9.2316351 -0.99549824 0.036886409
-4.8028321 -2.779995 1.1793082
-4.6130843 -3.0084221 1.3191719
7.8897715 -0.68291944 0.19743015
8.2596264 -0.64162201 0.16065831
8.7728014 -0.63028818 0.1108367
9.0712709 -0.75690156 -0.028852269
-5.0469432 -2.5648429 1.3709071
7.7241497 -0.26679128 0.15845354
-5.4371881 -1.9443219 1.3822855
-5.3570848 -2.1622374 1.4153675
7.6060987 0.20018275 0.22045685
-5.648427 -1.6536865 1.4448205
7.4786839 0.67167342 0.24926449
-5.8450222 -1.2047042 1.4775302
7.3398585 1.142953 0.27924126
-5.9201856 -0.67006403 1.501241
7.021533 1.8174928 0.37758374
7.1576962 1.5829682 0.28926712
-5.906652 -0.12453566 1.516557
6.836947 2.1067433 0.36264014
-5.836401 0.22880788 1.4708723
-5.8141179 0.41700786 1.5439038
6.3771029 2.7284606 0.43294424
6.5743871 2.4935105 0.41463721
-6.4982519 0.9556784 1.6071296
-6.1912546 0.75212735 1.5973245
6.1241245 2.9844363 0.48782599
-6.6732326 1.2668211 1.6334159
5.5882659 3.4555125 0.54982913
5.8547678 3.2443845 0.52794421
-6.8142543 1.7210119 1.66061
-0.34980965 3.0728838 1.2533357
-0.1568145 3.1322119 1.212543
4.9507008 3.8490453 0.64693701
5.2998657 3.649931 0.60386044
-6.8380518 2.2002659 1.6780221
-1.93189 3.1619673 1.2682579
-1.5102189 3.1210816 1.2119613
-1.0061395 3.1339478 1.178712
-0.55805117 3.1140218 1.0727357
0.010402039 3.2481914 1.0670763
0.44510782 3.4805086 1.0385395
0.90064603 3.707701 1.0164354
1.2808853 3.8705451 1.0030564
3.580677 4.2837329 0.81762594
3.8774657 4.2226806 0.76837516
4.3989015 4.0833097 0.69995165
-6.7931561 2.6240017 1.6870668
-6.7031879 2.9177644 1.6878484
-2.3976982 3.6730473 1.3501493
-2.2251961 3.4725897 1.3064544
1.5344124 3.9666348 0.93597525
1.8802408 4.0742784 0.94706899
2.3636191 4.2138586 0.89712262
2.8469741 4.3058343 0.84093338
3.3187864 4.3179655 0.8077361
-6.7043357 3.2651229 1.6986176
-2.6191189 3.9662864 1.3473122
-6.9033446 3.711997 1.8821576
-6.8414445 3.7319374 1.6894958
-3.032202 4.5604501 1.5391159
-2.896194 4.4385152 1.352474
-6.9376755 4.2702341 1.7525249
-3.0843236 4.9070497 1.5478542
-3.0517704 4.9265714 1.3030709
-6.7726936 4.6758337 1.7895863
-6.348681 4.964294 1.7395935
-6.0576468 5.1206837 1.7585113
-3.6912415 5.5452185 1.4939078
-3.3793137 5.4035268 1.4826645
-3.1325653 5.2113228 1.2677118
-5.8205042 5.2218304 1.7172439
-5.4227452 5.3474121 1.6777099
-4.9424582 5.446785 1.6231201
-4.4375057 5.5202794 1.6034874
-3.9368703 5.5610199 1.5410392
-2.1851714 -6.4241681 1.4873729
-1.812268 -6.4338126 1.3951955
-1.351285 -6.3814969 1.3710901
0.6254493 -5.9736905 1.186981
0.92795235 -5.8834033 1.1427203
4.2441525 -5.2692361 0.7095505
4.5658035 -5.2412505 0.83929902
5.0124106 -5.1628861 0.84829527
5.509294 -5.0838881 0.87394404
6.0270786 -4.9586382 0.69275635
6.3336396 -4.8847666 0.57796752
-2.1856468 -6.1639299 1.4012604
-2.0250452 -5.9565048 1.3743911
0.37678933 -5.8939953 1.1867033
1.1443501 -5.5809145 1.1126839
1.5348103 -5.4337087 1.1284598
2.0107603 -5.3295588 1.0868679
2.5085814 -5.2308583 1.0394865
2.9822166 -5.1361165 1.004088
3.4956691 -5.0344853 0.94593233
4.0099397 -5.07304 0.92177153
4.3720379 -5.1748528 1.010252
5.7806077 -4.8623395 0.51201218
6.5418205 -4.7672014 0.71732754
6.9386954 -4.5775456 0.67487866
7.3975248 -4.3570981 0.60145396
7.7185287 -4.1845436 0.4949854
-1.9206841 -5.6431155 1.5258911
-1.5874414 -5.3751159 1.401172
7.939631 -4.0055947 0.5920586
8.3074408 -3.7352173 0.5467025
8.6491108 -3.4914079 0.39572001
-1.3980885 -5.0247469 1.4997149
-1.3062276 -4.8508315 1.3008566
8.8053637 -3.2444575 0.55918205
9.0347624 -3.0023959 0.4173575
-1.4139689 -4.4892473 1.6281492
-1.3756454 -4.4298606 1.3912036
9.2117443 -2.6148925 0.48981619
9.3440094 -2.3041866 0.36641777
-2.630388 -3.9348471 1.3415366
-2.2374322 -3.920006 1.478235
-1.6919699 -4.000484 1.489954
9.2529879 -2.1894891 0.66234213
9.3508492 -2.0192654 0.42565072
-3.6509106 -3.613436 1.5233977
-3.3015018 -3.710176 1.6497729
-2.7909825 -3.8268287 1.6176151
-2.3405774 -3.8316705 1.7053313
9.1950874 -1.5790082 0.77869868
9.3035069 -1.5396414 0.48873866
-4.2357402 -3.2124844 1.6400744
-3.8788364 -3.374862 1.7291989
-3.5243895 -3.5253665 1.8215426
7.9206629 -1.0976132 0.86276567
8.987977 -1.0059706 0.65579444
9.1932812 -1.0998261 0.44148844
-4.4540381 -2.9684427 1.7840023
7.8286166 -0.82105237 0.71684027
8.3449717 -0.82749814 0.66474086
8.7460604 -0.76093537 0.53046405
-4.9329762 -2.5233247 1.8227246
-4.6948032 -2.7038445 1.8910304
7.7082729 -0.29153472 0.68836236
-5.2160883 -2.1002691 1.8917806
7.6055031 0.15804012 0.73016292
-5.5491114 -1.6404424 1.9382381
-5.3838844 -1.7525816 2.1434586
7.4786444 0.64185721 0.75061208
-5.7278552 -1.1896517 1.9992452
7.3279538 1.1105089 0.7816816
-5.7951479 -0.68167543 1.9955239
7.0496883 1.6828039 0.85628641
7.1907425 1.4717168 0.72736573
-5.7730789 -0.20425014 1.9830904
-5.6602798 0.041412726 2.0837228
6.8106031 2.0718246 0.86693412
-5.6487265 0.36703902 2.0105867
6.3990455 2.6425717 1.015328
6.5826097 2.4332457 0.87801987
-6.4260907 0.94663829 1.9454131
-6.0982518 0.82099885 2.0775359
-5.7450147 0.64842004 2.1106937
6.1226845 2.9565065 0.97868478
-6.615159 1.2560263 2.130748
-6.3699727 1.0204431 2.2673912
5.6086688 3.4071231 1.0579308
5.8743386 3.2085435 0.9460566
-6.7998281 1.7001399 2.1614749
-1.7705793 2.7408888 1.8624929
-1.3918518 2.8350472 1.8774196
-0.87604648 2.9099214 1.7275959
-0.42979962 2.8849888 1.6270833
0.046524167 3.0413709 1.5757208
0.35598761 3.0896313 1.7674563
4.6874256 3.9116023 1.2545096
5.0025921 3.7767963 1.1252414
5.3282986 3.5974467 1.1152236
-6.8248181 2.1800947 2.178895
-1.9884863 3.0023694 1.7777129
-1.4091134 2.9652123 1.6356823
-1.0053356 3.019093 1.5423403
0.25165153 3.2212152 1.4675602
0.54164958 3.3684847 1.5165223
0.97686839 3.6116762 1.5018958
1.4434259 3.8314641 1.4812287
1.8996106 3.9577134 1.5618047
2.253016 4.0212698 1.6173952
3.0777919 4.1592083 1.5589571
3.4748292 4.2034435 1.3532344
3.9264324 4.1280627 1.2655115
4.4056473 4.0108571 1.1911649
-6.7567401 2.6073778 2.1856291
-6.639009 2.9057684 2.1840093
-2.4067531 3.5833571 1.8571075
-2.1946404 3.3673582 1.7540472
1.6395335 3.9464056 1.3135264
1.9394364 4.0274954 1.3266405
2.4206705 4.1248598 1.3707883
2.8937442 4.2133408 1.3279191
3.2853603 4.2594886 1.2027321
-6.6563945 3.2507653 2.1959481
-2.905093 4.0748825 2.0573018
-2.6933594 3.9058461 1.8480836
-6.8835936 3.7083943 2.0309558
-6.8096409 3.7111194 2.2469203
-3.0376563 4.434195 1.9293995
-2.9166796 4.2992268 1.6954015
-6.8981628 4.2292528 2.2605941
-3.1343763 4.890316 1.9282758
-6.7339549 4.6194897 2.2259111
-6.3178725 4.9032011 2.2731707
-5.9789066 5.0943909 2.2093396
-3.6960976 5.5039473 2.0252137
-3.3797214 5.3515859 1.9952624
-5.7178936 5.2030544 2.2035737
-5.3400426 5.3239908 2.1801016
-4.8628325 5.4371219 2.1156888
-4.3857007 5.5019245 2.092927
-3.9622238 5.524828 2.0388227
-2.2212908 -6.4772058 1.9911803
-1.8014355 -6.4367781 1.887338
-1.3074484 -6.3570781 1.8464673
-0.81477374 -6.2838812 1.921229
-0.26512319 -6.2028084 1.8721324
0.18050511 -6.0940151 1.8373452
0.65232539 -5.9882827 1.6638134
4.7367296 -5.1824503 1.1898476
5.1050472 -5.1542983 1.24332
5.5292521 -5.08253 1.291099
5.9597788 -4.977416 1.1410224
-2.3827717 -6.2069173 1.9473656
0.27627963 -5.9341602 1.5318431
0.84934515 -5.814343 1.9191222
1.1176915 -5.5833182 1.6543006
1.5579568 -5.4355531 1.6210639
2.0495045 -5.3298826 1.5871527
2.5496509 -5.2304478 1.5477687
3.0522566 -5.1326089 1.4736092
3.5391619 -5.034492 1.4805379
4.0244856 -4.9355736 1.388805
4.5324545 -4.9743843 1.3596188
4.9240284 -5.0704679 1.4422699
6.1964326 -4.8522277 1.24806
6.4905934 -4.6532431 1.1723447
6.9148512 -4.4029417 1.1344798
7.319313 -4.2581472 1.004925
-2.3135793 -5.764801 2.0398386
-2.0463395 -5.5109982 1.9047952
-1.7334359 -5.2974014 1.7645669
7.0661182 -4.1257772 1.3168637
7.4203043 -4.0598402 1.2011015
7.8789325 -3.8588531 1.0720829
8.2681036 -3.6123314 0.94152308
-1.8917177 -5.2919927 2.0610921
-1.5325118 -4.9993219 1.9413611
8.3649521 -3.3584154 1.1613568
8.6633282 -3.1492064 0.96379614
-1.4106644 -4.5104241 1.9596539
8.7781 -2.7453482 1.1388954
9.0237589 -2.6071577 0.89428484
-1.5113633 -4.0141153 1.9848392
8.8492517 -2.3441541 1.2696155
9.046874 -2.1542442 1.0187634
-3.171499 -3.5803559 2.031487
-2.7761421 -3.6364489 2.1016796
-2.2464719 -3.6966078 2.0453053
-1.7440206 -3.7100885 2.0876772
7.6803303 -1.7575357 1.3544995
7.9508324 -1.6386626 1.3183262
8.5654449 -1.5487285 1.2996728
8.9774017 -1.6173067 1.0745564
-3.7856092 -3.271482 2.1949463
-3.3527515 -3.4313498 2.2098639
7.6142197 -1.3744897 1.3296877
7.9065847 -1.3093227 1.1118934
8.4063501 -1.1748117 1.0758296
8.8353815 -1.1869439 0.97623444
-4.3172317 -2.9020996 2.2511563
-4.0325098 -3.0835025 2.3326604
7.5839739 -0.84444457 1.3379173
7.6637783 -0.85989791 1.1122715
-4.817441 -2.4380598 2.3163891
-4.5891876 -2.6039579 2.361335
7.5062881 -0.37898916 1.3699622
7.6039047 -0.34312385 1.1177325
-5.0386739 -2.1107991 2.3752246
7.4311934 0.045774773 1.4406531
7.5095572 0.14401968 1.1940829
-5.4673085 -1.5004306 2.2721965
-5.2372909 -1.634407 2.4571686
7.2937012 0.64417094 1.4245589
7.4199581 0.58398628 1.1435465
-5.5605922 -1.125581 2.3380983
-5.4078794 -1.1008216 2.5436115
7.1882148 1.09284 1.3501029
7.3081646 0.9778021 1.1057891
-5.6302176 -0.65563601 2.3342533
-5.456604 -0.6160031 2.56829
6.9755964 1.5566411 1.3642371
-5.6744366 -0.38747656 2.25845
-5.4696374 -0.13447581 2.4906745
6.5722666 2.1105368 1.6248419
6.7285094 2.0107491 1.3860984
-5.3850303 0.34747767 2.4971275
6.3621159 2.5160325 1.4717951
6.5902848 2.3251321 1.2748591
-6.0098009 0.91313928 2.5547476
-5.6118569 0.71618599 2.5670695
5.8765783 2.9948232 1.6035058
6.0887074 2.8488038 1.4646852
-6.5043001 1.3271271 2.5834615
-6.2847838 1.1132889 2.6485622
-0.55054206 2.4534295 2.353472
-0.29363793 2.5191383 2.2778058
5.2357578 3.4492981 1.684322
5.5808988 3.2866814 1.5486321
-6.6518087 1.7002256 2.6509306
-2.1010804 2.4327669 2.4290054
-1.8473558 2.4833312 2.2196703
-1.3223736 2.6260452 2.2026961
-0.82530767 2.6666229 2.1323559
-0.33826375 2.6620216 2.0435774
0.169937 2.8361063 2.0806406
0.60069746 3.0904942 2.0438709
0.92154479 3.2347791 2.1370785
4.2156587 3.7924402 1.8632412
4.5609021 3.7853286 1.6993784
4.998991 3.6460631 1.5811133
-6.6936941 2.1781974 2.6693604
-2.2100728 2.9851615 2.3789198
-2.0923557 2.9035594 2.1383855
0.72717661 3.2819715 1.8765874
1.0952369 3.4630206 1.9478607
1.5420295 3.6654813 1.9622632
2.0128694 3.8451679 1.9109902
2.5059516 3.9415152 1.8896142
3.0005119 4.0285859 1.833004
3.4997365 4.0437574 1.7902036
3.9987006 3.9658029 1.7154059
4.3584023 3.9172375 1.517293
-6.6666374 2.5618756 2.5983007
-6.5459146 2.817759 2.7015996
-2.4642799 3.4524739 2.3290396
-6.4919329 3.255399 2.6829958
-2.9044194 3.9181049 2.440769
-2.7322197 3.7714837 2.273634
-6.7110014 3.7075939 2.7296555
-3.0901387 4.3682141 2.4394572
-6.7087564 4.2200589 2.7435882
-3.2413216 4.8444824 2.4759231
-6.6112137 4.5451307 2.6118131
-6.2716136 4.7457671 2.770221
-5.7857208 5.0432782 2.7135832
-5.3308768 5.1836371 2.8002627
-4.8171525 5.2800207 2.8435774
-4.2391644 5.3698797 2.7560923
-3.7813942 5.4227209 2.537962
-3.3552692 5.2510653 2.466913
-5.2848935 5.2674031 2.5625985
-4.8346586 5.3632879 2.5785668
-4.3651137 5.432539 2.5119126
-4.0504255 5.4594765 2.4561708
-2.2483764 -6.5009174 2.4507327
-1.7545093 -6.4399543 2.4092567
-1.256954 -6.3452501 2.3623745
-0.77290946 -6.2511244 2.3334892
-0.28157705 -6.1656842 2.2572381
0.22862025 -6.0852118 2.2184503
0.59871119 -5.9979644 2.1371913
5.2945337 -5.1339898 1.7999783
5.6099944 -5.0837011 1.7385494
5.9293242 -4.9982219 1.6455159
-2.5224144 -6.3788986 2.5693369
-2.4897246 -6.1249866 2.4762042
0.79442394 -5.8065906 2.2351854
1.1204283 -5.5433383 2.1176381
1.605841 -5.4214802 2.1430573
2.1144767 -5.3168058 2.0659831
2.593111 -5.2217307 2.0494153
3.0853276 -5.1240807 1.9855009
3.5647805 -5.0257964 1.9665012
4.0591669 -4.9197598 1.8964798
4.55618 -4.830193 1.8433793
5.0048251 -4.9846125 1.7975173
6.1636634 -4.8289032 1.7588521
6.4625683 -4.5355411 1.6582816
-2.3774323 -5.681098 2.4962387
6.6132345 -4.2619243 1.7755389
6.8853607 -4.000433 1.584384
7.4305477 -3.8284509 1.4342456
7.7582517 -3.7232392 1.4125211
-2.2168403 -5.3658876 2.662256
-1.9636264 -5.2157125 2.4924192
-1.5402381 -4.9413304 2.4232111
6.964869 -3.6070158 1.7468324
7.3219142 -3.4859569 1.613126
7.8326001 -3.3869555 1.6123198
8.2279902 -3.2386477 1.4516051
-1.3359083 -4.6441865 2.3586807
-1.2486966 -4.4395223 2.49594
7.0364141 -3.2605364 1.861596
7.2572932 -2.9858792 1.7581099
7.7357502 -2.8995802 1.7081273
8.2437181 -2.8301249 1.6192117
8.564126 -2.698287 1.3993595
-1.4560281 -3.8665559 2.2936449
-1.3086238 -3.9931681 2.4879625
7.3526583 -2.5165706 1.7722595
7.6482267 -2.4213779 1.6346395
8.1415472 -2.3311632 1.6468577
8.6127043 -2.2423906 1.4398097
-2.6360114 -3.5066812 2.4560971
-2.2248399 -3.5044045 2.5202727
-1.7466633 -3.5145981 2.509944
-1.391695 -3.5629361 2.6190171
7.3583007 -2.1267393 1.9160128
7.5182233 -1.9583094 1.6367128
8.0715322 -1.8801343 1.4886703
8.5386953 -1.7969433 1.416501
-3.6650507 -3.1571736 2.5677025
-3.28637 -3.2475822 2.6483846
-2.8246341 -3.3652742 2.6579208
-2.3968961 -3.372972 2.7483199
7.4476018 -1.42066 1.7361789
-4.2008991 -2.8158193 2.5747468
-3.8719957 -2.9258444 2.7536345
-3.4996786 -3.0489655 2.8596964
7.4174285 -0.91827518 1.721828
-4.4215598 -2.4825122 2.7729869
-4.113296 -2.5718579 2.9389439
7.3433294 -0.47358519 1.7745724
-4.871707 -2.0552313 2.7384644
-4.6265116 -2.1321537 2.9491291
7.285193 0.056339696 1.7766793
-4.9791651 -1.581585 2.8275423
-4.7851596 -1.550797 3.0596268
7.1376672 0.57030267 1.8358929
-5.1334248 -1.1090051 2.8244023
-4.8749347 -1.0859294 3.0789065
6.9952192 1.0236335 1.8469346
-5.1768608 -0.65759724 2.8666456
-4.9354038 -0.59354323 3.0851705
6.6714339 1.5047143 2.0136101
6.8617902 1.4088327 1.7896614
-5.2057576 -0.16105078 2.793746
-4.9420562 -0.047755107 3.0067918
6.1421733 2.0836322 2.2094634
6.4483986 1.9511371 1.9310282
6.6982284 1.7897857 1.692481
-5.2637138 0.64074779 2.8904054
-5.0298634 0.43071485 2.981894
5.960566 2.46173 2.0927267
6.1947265 2.3750536 1.8751652
-6.0162177 0.86944133 3.0984554
-5.5198517 0.71048081 3.0221419
-0.73600775 1.7940429 2.8542001
5.4404745 2.8611989 2.2602966
5.7165194 2.863018 2.0076771
-6.4204559 1.3033925 3.1539519
-6.2894158 1.1027678 3.0159869
-2.3999605 1.8085179 2.9849095
-2.1683064 1.9263965 2.8145883
-1.6998503 1.9840927 2.7083316
-1.2057678 2.0730174 2.7062161
-0.72060448 2.1817508 2.6152875
-0.22305308 2.252285 2.5867703
0.20739421 2.3894498 2.6178181
0.58435327 2.6008554 2.6862524
4.8340673 3.2597179 2.2881615
5.1815929 3.191489 2.0833306
5.5187306 3.1258833 1.9067986
-6.5158844 1.699139 3.1393178
-2.2719145 2.4270761 2.7974808
-1.1905917 2.436131 2.4578829
-0.93716687 2.4721198 2.4262822
0.2896356 2.6922519 2.4032114
0.72197151 2.8837881 2.4599121
1.1465753 3.1098588 2.4845874
1.6623602 3.3002882 2.5222986
2.12359 3.3963017 2.54564
2.6271634 3.4586666 2.5373352
3.1066089 3.541245 2.4931927
3.6634729 3.6017151 2.3840969
4.1262031 3.5405998 2.2566082
4.6021781 3.5372293 2.1150692
4.9178681 3.5036776 1.9718698
-6.5484667 2.1189399 3.1289656
-6.5118346 2.3605072 3.2397983
-2.6104329 3.001446 3.0499475
-2.3827589 2.8960743 2.7986228
1.3016272 3.3335524 2.3094151
1.6082491 3.4375439 2.3240893
2.1185687 3.6146562 2.3050792
2.5708508 3.6733763 2.301378
3.0663235 3.7612109 2.2330623
3.5493085 3.8180082 2.1517103
3.8929684 3.8484433 2.0177236
-6.4544535 2.7501955 3.1663785
-2.8205283 3.3730843 2.975966
-2.5782104 3.3416708 2.7322836
-6.4638004 3.2362556 3.1824801
-3.3960299 3.8336625 3.104789
-3.0559466 3.7467337 2.8715594
-6.5251274 3.704195 3.2127552
-3.4512169 4.2187061 3.0754459
-3.2219617 4.271843 2.8101177
-6.4753609 4.1578245 3.1734166
-6.2421784 4.4295893 3.281085
-3.4899917 4.7242575 3.0852594
-3.328367 4.7335868 2.8387299
-6.0797 4.6844459 3.1385462
-5.6996336 4.8790731 3.1754527
-5.2234969 5.0639286 3.1565311
-4.751235 5.1776958 3.1208401
-4.2618418 5.249835 3.0897696
-3.7332318 5.2356658 3.0350132
-3.4645524 5.192255 2.8498862
-2.152071 -6.5042086 2.9277217
-1.6931679 -6.4473891 2.9232092
-1.1907742 -6.3485661 2.8237088
-0.74154264 -6.2646885 2.8472834
-0.22162013 -6.1697097 2.7637186
0.25357705 -6.0941086 2.7133043
0.67932814 -6.021606 2.7312548
4.3811617 -5.3439751 2.5888302
4.7336473 -5.2848587 2.459765
5.1703048 -5.2048078 2.334729
5.6495695 -5.104424 2.2045057
-2.4262247 -6.2936258 2.9949794
1.2298291 -5.5028024 2.5240216
1.6552694 -5.3965044 2.6438644
2.1338019 -5.3031673 2.5542769
2.6429806 -5.1997261 2.56585
3.1213298 -5.1023564 2.4628954
3.5744271 -5.0166492 2.3776145
4.0529199 -4.9159236 2.240319
4.3608217 -4.8491116 2.2076192
5.8644967 -5.0379071 2.3765936
6.135704 -4.8048778 2.2322371
6.3651676 -4.5486321 2.0876081
-2.337024 -5.7196722 3.0038507
6.4992924 -4.1718483 2.2249918
6.73248 -3.899821 1.9597394
-2.1759074 -5.37217 2.9602697
-1.9201298 -5.1773591 2.9839709
-1.422235 -4.9415817 2.991596
-1.0378948 -4.8489742 3.0106111
-0.67649847 -4.7850766 3.1014316
0.48069167 -4.5475869 3.006789
6.5250587 -3.6646438 2.3515978
6.7724524 -3.5553892 2.1174829
-0.99761921 -4.5085249 2.8514218
-0.64812624 -4.406188 3.0593483
0.45213628 -4.237618 2.9490254
0.94124824 -4.0555921 2.8128312
1.2062398 -3.9294794 2.9121473
6.5078187 -3.3319199 2.435761
6.8559856 -3.0970399 2.2436237
7.0994987 -2.847508 2.0481703
-1.0145055 -3.9293997 2.8741086
-0.74940097 -3.8885968 3.1026704
0.44847047 -3.7641234 2.9762549
0.86403209 -3.6688185 2.8188741
1.1325309 -3.5583966 2.9249661
6.9333081 -2.6568146 2.4265227
7.1505036 -2.507925 2.1696305
-1.660405 -3.3365595 2.8026149
-1.1780758 -3.437927 2.9060423
-0.86125976 -3.4458444 3.1365874
0.46634471 -3.3941576 3.0310574
0.75986838 -3.1792314 2.9343722
1.0763255 -3.2653012 2.9757764
7.1984568 -2.0322235 2.2475774
7.3594127 -1.8499527 1.9925551
-3.0954421 -3.1129906 2.9497371
-2.730633 -3.1280599 3.016794
-2.2504537 -3.1439073 3.0501606
-1.7905781 -3.0990672 3.0796151
-1.3149574 -3.0720673 3.0960455
0.74751586 -2.7742157 3.0309577
7.1389456 -1.4861057 2.2973316
7.316422 -1.4476507 2.0452409
-3.6875479 -2.7725394 3.0871141
-3.3109593 -2.8452799 3.1656899
-2.8461535 -2.854435 3.272362
-2.3842967 -2.8720262 3.3146377
-1.496495 -2.763211 3.2586324
7.063705 -1.0218418 2.330147
7.2331896 -0.98512381 2.0682297
-4.2500057 -2.3295858 3.0759873
-3.8846142 -2.4537926 3.2166135
-3.5237892 -2.4729073 3.3938348
7.0274377 -0.56084138 2.3538239
7.1838074 -0.46870571 2.0947382
-4.3975325 -2.001045 3.2282033
-4.0512862 -2.032052 3.4142885
6.9079189 -0.014933154 2.3941538
7.1142845 0.019830063 2.1160097
-4.5186338 -1.4997327 3.3398702
-4.2458816 -1.5064676 3.5477483
6.8505645 0.49727154 2.3840165
6.9955659 0.50175518 2.1482079
-4.5857153 -1.0498528 3.3304338
-4.3406525 -0.96962565 3.5547581
6.7195015 0.96277529 2.4068861
6.8862357 0.93132895 2.1620944
-4.6626315 -0.58473271 3.2964833
-4.3415327 -0.49052006 3.5201318
6.204515 1.5032227 2.606571
6.4976659 1.3731574 2.3890994
-4.6733174 -0.078187332 3.2397871
-4.3488836 0.014137045 3.4453797
-3.9820569 0.17360933 3.5526216
5.6398554 1.9251459 2.7248988
5.9873805 1.8676643 2.5098648
6.2949562 1.7899064 2.2911253
-5.2584805 0.59612107 3.5495896
-4.8870535 0.51998699 3.4543931
-4.4145799 0.44515973 3.4747951
-3.9345214 0.60411829 3.5148399
-3.4817545 0.75994635 3.508332
-2.9682107 0.89154744 3.4719806
-2.4836788 1.0086042 3.4220924
-2.02707 1.0776222 3.3947566
-1.4710138 1.2086529 3.3512528
-0.96000689 1.136881 3.2590144
-0.53516585 1.2739615 3.2128391
-0.066610798 1.4252187 3.214884
0.25772119 1.5364872 3.2248502
4.9676929 2.3613083 2.7933066
5.4464035 2.3002598 2.6611807
5.8088188 2.3146083 2.3993273
-6.0081501 0.78619534 3.5715535
-5.514864 0.62396568 3.5098152
-3.7265067 0.93482476 3.5390108
-3.4231787 1.1183606 3.4598391
-3.0464947 1.2344835 3.316143
-2.557523 1.3262926 3.2192056
-2.0680656 1.4135759 3.1664522
-1.5785234 1.5011406 3.1146681
-1.0902498 1.5883298 3.0354323
-0.57112223 1.6426905 2.9845476
-0.10753278 1.7592183 2.9845614
0.36538833 1.8656795 3.0654042
0.84297317 2.045892 3.1623955
1.1724511 2.1255777 3.1922724
3.9075439 2.5757611 2.918237
4.337604 2.590405 2.8274779
4.8331804 2.6306915 2.6646633
5.2773061 2.7093089 2.4465852
5.5861101 2.6594689 2.3284507
-6.4019094 1.2168106 3.6158793
-3.2976618 1.4667094 3.5607226
-2.9956169 1.5999546 3.4336321
-2.6342576 1.8109444 3.226337
-2.4184306 2.0954444 3.0406439
0.43156224 2.2049856 2.8772023
0.81146461 2.4000168 2.9351594
1.2814065 2.5173252 3.0290484
1.7513206 2.7108998 3.0436368
2.2123353 2.8406208 3.0333974
2.7867174 2.9414756 2.9931078
3.2876599 2.9343865 2.9076664
3.7609279 2.9489613 2.7876964
4.2265444 3.0244033 2.6410596
4.6866083 3.0429726 2.5095358
5.0322785 2.9605277 2.3789124
-6.5002017 1.6786097 3.6395719
-2.634501 2.3264368 3.3483307
-2.4403689 2.378866 3.0905793
1.2861445 2.8953764 2.7831604
1.6977682 3.01 2.8250184
2.1829042 3.1846967 2.7810912
2.6605408 3.2114704 2.774065
3.1849313 3.3088868 2.6682599
3.655818 3.3548586 2.6041634
4.0682049 3.318078 2.5089808
-6.490149 2.0242441 3.6492982
-6.4472685 2.3090744 3.6540816
-3.1160302 2.9118693 3.5808308
-2.7913105 2.8128529 3.3376284
-2.5206716 2.7271426 3.0853491
-6.3958764 2.7359245 3.6626904
-3.6857703 3.2797115 3.6555388
-3.3265984 3.2287347 3.4982619
-2.9829538 3.2303517 3.2580373
-6.4114723 3.2246735 3.7037392
-3.7852252 3.6343725 3.5255136
-3.5167468 3.6247082 3.3098304
-6.3659 3.6775448 3.682951
-6.13833 3.9051905 3.88169
-3.8534448 4.1072469 3.6145298
-3.6524174 4.1859069 3.4135067
-6.3474722 4.0547919 3.4803724
-6.0519853 4.2380486 3.6775818
-5.6586328 4.4932413 3.7671566
-4.9658704 4.6969595 3.8337462
-4.4948025 4.7681789 3.8044777
-4.0401206 4.6447077 3.6734092
-3.6987007 4.6743636 3.4498041
-5.9160614 4.5714593 3.4581895
-5.5418525 4.7124248 3.5717819
-5.1349397 4.8289332 3.6006165
-4.6459398 4.9363747 3.5775759
-4.1744905 5.0127969 3.4874322
-3.7846515 5.0383744 3.3611007
-2.0364103 -6.4844055 3.3539689
-1.6626083 -6.4539099 3.4234817
-1.1772866 -6.3697901 3.3203082
-0.6580829 -6.2668228 3.3528628
-0.20840935 -6.1742334 3.2281237
0.33296949 -6.0734363 3.1741049
0.82552421 -6.0057373 3.1988437
1.2588152 -5.9333177 3.2259376
1.6992004 -5.8432698 3.3155735
2.7874959 -5.6470914 3.1899292
3.310503 -5.5556149 3.0942767
3.7728193 -5.474288 2.9732437
4.1958032 -5.4062362 2.9043057
4.7167373 -5.3149014 2.8181024
5.193593 -5.2220864 2.806993
5.5784903 -5.1289058 2.6315026
-2.1530883 -6.2412086 3.4702179
-1.8691399 -6.4147129 3.6665144
-0.13159923 -5.9213061 3.4894748
0.26516908 -5.8449521 3.4075756
2.2252247 -5.2744865 2.859272
2.5362802 -5.1993942 2.8781364
5.3144712 -5.1467118 3.0056362
5.7322989 -4.9325433 2.8595541
6.0606437 -4.7177696 2.6726296
-2.1382594 -5.7592864 3.404248
-1.9168403 -5.5926681 3.5990176
-1.2498064 -5.3109202 3.6361718
-0.75514942 -5.2876248 3.5103068
-0.31392115 -5.3615866 3.4547987
0.19465227 -5.2613769 3.3231797
0.46692705 -5.049736 3.4358554
5.7421799 -4.2728338 2.9972563
6.0905895 -4.2657995 2.766201
6.3519211 -4.0889544 2.5379674
-1.808754 -5.2891831 3.4261553
-1.3923388 -5.170845 3.4402313
-0.93540365 -5.0770655 3.3236248
-0.42950064 -4.890862 3.2010128
0.064117387 -4.805563 3.1525838
0.55573052 -4.7045064 3.2282965
0.94821042 -4.4815254 3.3917723
5.5979996 -3.8951833 2.9974823
5.9794979 -3.7756169 2.7552259
6.2965522 -3.7036226 2.520802
-0.38873667 -4.37462 3.1392429
-0.042997763 -4.3141122 3.1146598
0.9963972 -4.2983918 3.1471219
1.4360813 -4.0144982 3.2116084
6.0419841 -3.3820541 2.8949459
6.3368874 -3.1558106 2.7065485
6.6501184 -2.9537778 2.5359251
-0.53298622 -3.8586228 3.2040875
-0.12047289 -3.8256791 3.2165766
0.22647627 -3.7193859 3.1181889
1.3627561 -3.549124 3.2023013
6.3905234 -2.7072356 2.9106331
6.7359815 -2.5885284 2.6196947
-0.62310213 -3.3880329 3.2854204
-0.19450919 -3.3350959 3.3572159
0.25384903 -3.2301755 3.2159677
1.2301277 -3.0645509 3.23648
6.4247141 -2.1937592 2.9953854
6.6742706 -2.1376948 2.7551329
6.9855123 -2.0401185 2.5324328
-1.1190991 -2.8803289 3.2948303
-0.78641641 -2.9581418 3.3443618
-0.27405882 -2.8490055 3.4261615
0.20987166 -2.7662058 3.3050344
0.64368486 -2.6327102 3.113807
1.072898 -2.6282415 3.3297279
6.2840986 -1.6480447 3.0031722
6.6100049 -1.6146247 2.780854
6.9035368 -1.537783 2.5555229
-2.7883344 -2.6359494 3.4767709
-2.3209989 -2.6486328 3.5211301
-1.8174148 -2.5934088 3.4839766
-1.3217082 -2.5226517 3.4843791
-0.84404331 -2.449656 3.5363367
-0.35385185 -2.3636076 3.491765
0.13139327 -2.2799244 3.3881927
0.66417474 -2.1763046 3.2951703
0.96699703 -2.2858126 3.4613967
6.2309227 -1.296958 3.0533071
6.5300508 -1.140063 2.8468583
6.8399229 -1.0707099 2.6033876
-3.314796 -2.3135176 3.5643482
-2.9002044 -2.3221376 3.6543465
-2.3927457 -2.2219839 3.759733
-1.8695204 -2.1655223 3.7476175
-1.3955675 -2.0669529 3.7407944
-0.9232443 -1.9641397 3.609622
-0.43170875 -1.8760893 3.5896235
0.050151363 -1.7948499 3.4392958
0.5023737 -1.7297628 3.4212451
6.5407372 -0.66795844 2.9613004
6.791523 -0.57114846 2.6775026
-3.8413093 -1.8835924 3.5930097
-3.4543571 -1.8977325 3.7500381
-2.9880276 -1.9097078 3.8788748
-2.5068033 -1.7917541 3.8650615
-1.2658448 -1.666718 3.7781742
-0.97127587 -1.5034093 3.6508546
-0.51007289 -1.3911152 3.6560113
-0.026745781 -1.3076632 3.5434651
0.3293882 -1.2727455 3.4750035
6.4016504 -0.12212019 3.0067909
6.6912646 -0.089184687 2.7399669
-3.9969461 -1.4135326 3.6958594
-3.5372398 -1.3586767 3.8834074
-1.0088928 -0.967794 3.7053001
-0.59322709 -0.90837115 3.6823969
-0.1163228 -0.83339137 3.6245508
0.2435412 -0.75872606 3.6369553
6.3063784 0.32186091 3.0466559
6.6422567 0.39655179 2.7557042
-4.0736766 -0.96198112 3.7316623
-3.6154881 -0.89777678 3.8759539
-3.2502873 -0.7419731 3.9448843
-2.0076346 -0.48788077 3.8972349
-1.4556992 -0.55779463 3.8346953
-1.1678965 -0.50831765 3.7299476
-0.67867583 -0.42257822 3.6815476
-0.33274502 -0.43124372 3.7292833
6.2150621 0.79546994 3.0192142
6.5383244 0.80835038 2.7405407
-4.091146 -0.53379512 3.6980064
-3.7364686 -0.39959306 3.8107316
-3.2325463 -0.30017298 3.8708832
-2.7579718 -0.16185088 3.8900466
-2.2445586 -0.12466608 3.8613791
-1.7719961 0.066270396 3.8248129
-1.2675869 0.047057346 3.7173543
-0.78217667 0.13141559 3.6214499
-0.32980031 0.26372129 3.6849995
0.24202368 0.44926524 3.6727803
0.56825024 0.20469053 3.665905
1.3336946 0.68103039 3.6231229
5.7168875 1.2811555 3.1214826
6.0925441 1.2752817 2.8774915
-3.8028905 0.035354689 3.6713808
-3.3256767 0.18361349 3.7757096
-2.829246 0.27198893 3.8049734
-2.3406157 0.35890049 3.7406983
-1.8544328 0.44425386 3.6481709
-1.3600909 0.53234923 3.6452687
-0.87965244 0.61684257 3.4823365
-0.38495171 0.70362371 3.4993942
0.11596327 0.79141885 3.566165
0.58811557 0.89770514 3.6180489
1.1428086 0.94740433 3.6035295
1.6254371 1.0840834 3.5617776
2.097013 1.2071706 3.5451775
2.5042484 1.2082206 3.5227604
3.1734266 1.4148932 3.4372439
3.5078542 1.5052259 3.3771591
5.079423 1.7494727 3.2163494
5.500566 1.706754 2.9827373
5.9015074 1.6429671 2.7934461
-5.181819 0.6044873 3.8671203
-4.8453417 0.6022647 3.9396563
-4.4200702 0.65824908 3.8847277
-4.0630064 0.77236933 3.74979
-3.3593566 0.5170424 3.6285985
