# .PCD v0.7 - Point Cloud Data file format
VERSION 0.7
FIELDS x y z
SIZE 4 4 4
TYPE F F F
COUNT 1 1 1
WIDTH 1507
HEIGHT 1
VIEWPOINT 0 0 0 1 0 0 0
POINTS 1507
DATA ascii
-5.5500488 5.0508204 -4.2144718
-5.2795286 5.1421309 -4.2697816
-5.6649585 5.4804163 -4.3794293
-5.0774198 5.5554285 -4.3686142
-5.8127031 6.207675 -4.3245649
-4.940299 6.2963729 -4.3685441
-6.6044159 6.9430003 -4.1132812
-6.0737567 6.7271223 -4.3507218
-5.2232676 7.0224299 -4.3077807
-6.6646247 7.3083382 -4.2192388
-6.113893 7.5096221 -4.2277312
-5.6236868 7.3784742 -4.3181319
2.147537 -3.5439479 -4.3578587
0.96379822 -3.0845528 -4.2710772
1.4495177 -3.1730659 -4.4095988
2.0928574 -3.0984683 -4.4248681
2.6870387 -2.8119974 -4.4327006
3.1544716 -2.6482337 -4.408792
0.71930784 -2.5917745 -4.3592596
1.2727103 -2.5061951 -4.6050735
1.9704986 -2.3926578 -4.5728607
2.6709547 -2.2833278 -4.509738
3.186739 -2.1776326 -4.4514222
0.075263813 -1.9650912 -4.207068
0.47762299 -1.9605742 -4.5137882
1.1711653 -1.8715208 -4.7271514
1.8610861 -1.7192183 -4.6588573
2.5401089 -1.582021 -4.5510411
3.2173712 -1.4354193 -4.4779797
3.6038179 -1.2017777 -4.4394293
-0.10430984 -1.3708115 -4.2672644
0.44236761 -1.2993039 -4.6349959
1.1315649 -1.2206271 -4.7339649
1.7905543 -1.0699667 -4.7064729
2.5195222 -0.89493376 -4.605381
3.1962636 -0.76201975 -4.4785571
3.5864789 -0.81239432 -4.4151587
-0.17780243 -0.71350539 -4.2256169
0.32043427 -0.59355122 -4.5411949
1.0068848 -0.52647847 -4.7188492
1.6820836 -0.3851276 -4.6750007
2.3900783 -0.21904953 -4.5784564
3.013242 -0.098133191 -4.3824315
-0.14438362 -0.25374645 -4.0822568
0.27604675 0.0085780919 -4.2538509
0.8697378 0.1482549 -4.4088125
1.5648453 0.29742181 -4.415328
2.232712 0.4066425 -4.3721471
2.8359931 0.39244038 -4.2981296
1.3979645 0.65136349 -4.123683
-5.5321431 4.9058781 -3.6763604
-5.0994291 5.0559282 -3.6741459
-5.7347574 5.4133644 -3.6603043
-4.8471627 5.5426664 -3.6965067
-6.2477255 6.3228703 -3.4294741
-5.9322824 6.1003323 -3.6226044
-4.8376145 6.3017302 -3.6996098
-4.7180843 6.0759602 -3.4258647
-6.5400348 6.7223644 -3.5018106
-5.892684 7.0825911 -3.3933988
-5.2796006 6.9363556 -3.6224129
-6.4743118 7.1773376 -3.7646537
-6.0374274 7.2445874 -3.647177
-0.65328377 -5.7614136 -3.55391
-0.16969745 -5.7349315 -3.7952564
0.49463969 -5.6017623 -3.896035
1.1652919 -5.4243336 -3.8557322
1.8159347 -5.2500982 -3.7797375
2.3245294 -4.9492388 -3.7291369
-0.24571769 -5.1133184 -3.6721325
0.35641152 -4.9079795 -3.8247921
1.0462296 -4.8214936 -3.8502886
1.7451539 -4.7132721 -3.80215
2.3725846 -4.5057716 -3.785439
3.0710762 -4.1882896 -3.8897269
3.5255888 -4.1253314 -3.8137748
0.48702228 -4.486495 -3.5697498
0.96008027 -4.1240501 -3.7330201
1.5874345 -3.9732859 -4.0529399
2.2830222 -3.8791368 -4.1562076
2.9615629 -3.7238221 -4.1723213
3.6536157 -3.6115949 -4.0904794
4.3297448 -3.4262965 -4.0345988
4.8890982 -3.1692462 -3.9509032
0.43722746 -3.3722057 -3.56551
0.77401608 -3.4438999 -3.9088624
1.3045739 -3.5159693 -4.2003393
2.4560928 -3.2758515 -4.354713
2.8892593 -3.1115313 -4.3155732
3.5292428 -2.9028645 -4.2571864
4.2220826 -2.7901027 -4.1699481
4.9304156 -2.6899335 -4.0367441
5.3256817 -2.567982 -3.9168956
0.19957492 -2.7935829 -3.6646378
0.49104643 -2.8278804 -4.0394468
3.5393653 -2.1856854 -4.333447
4.0898523 -2.0855162 -4.224678
4.8026605 -1.9894769 -4.049212
5.1747069 -1.7282119 -3.9193704
-0.088203326 -2.1410065 -3.7225311
3.4778218 -1.7082846 -4.3598037
3.9856803 -1.3870115 -4.2891226
4.6704688 -1.2849083 -4.0922966
5.1260195 -1.2027154 -3.8952925
-0.5269708 -1.5573951 -3.3585627
-0.41321266 -1.4596345 -3.6886029
3.9107461 -0.65410686 -4.2361679
4.5870166 -0.5870682 -3.9700224
5.0244527 -0.71836495 -3.842417
-0.44338721 -0.75895023 -3.6446431
3.3564413 -0.0080332011 -4.2959275
3.8073225 0.025845423 -4.1525779
4.4684291 0.079699472 -3.9055283
4.9015074 -0.13453935 -3.779856
-0.27432567 -0.1446137 -3.5912042
0.10337837 0.24822482 -3.7236001
0.76539856 0.49250984 -4.0263977
2.3058553 0.7434997 -4.1627097
3.0090966 0.65742642 -4.1471806
3.6601374 0.67403549 -3.954766
4.2273726 0.56321627 -3.8055151
0.36152267 0.49285966 -3.4885709
0.86296505 0.66174215 -3.7050078
1.5195258 0.83882046 -3.8017633
2.2023897 0.9659425 -3.8040335
2.8520548 0.99354088 -3.7962248
3.3993146 1.0234762 -3.6752176
-5.5297437 4.7860336 -2.9363847
-4.8632741 4.9689989 -2.9915798
-5.7706027 5.3215647 -2.9483843
-4.6538053 5.4759808 -3.0583072
-4.6155949 5.7787318 -2.9242074
-6.3005252 6.083889 -2.8075285
-5.9190283 5.8474746 -2.9895978
-4.8537273 6.4136839 -2.970439
-4.6620245 6.0370994 -2.9965298
-6.3962488 6.5292182 -2.856163
-5.8689508 6.9428787 -2.8486795
-5.2614708 6.7930598 -2.9365067
0.23686858 8.1215706 -3.0954256
-0.28017431 8.5608606 -3.0745463
0.10377307 8.5677643 -3.2376337
-0.40413743 9.1124563 -3.0571556
-0.089480445 9.0774822 -3.1754088
-0.80510169 -5.8807092 -3.0632856
-0.089565203 -5.925117 -3.1447544
0.59906828 -5.7588091 -3.1800892
1.2763038 -5.6357861 -3.2395647
1.9614817 -5.5309782 -3.3154802
2.6245062 -5.2773042 -3.5197778
3.2786818 -5.0951543 -3.5531704
3.9427354 -4.9491453 -3.5429282
4.6532626 -4.7691636 -3.5063922
5.0894494 -4.6216903 -3.3574402
-0.77863556 -5.2484474 -2.982183
-0.41080672 -4.8504252 -3.2054684
2.6393223 -4.6267977 -3.7087324
3.1442916 -4.496944 -3.6981351
3.8488672 -4.3262467 -3.6789339
4.5185461 -4.194488 -3.6932662
5.1850109 -4.0212297 -3.5249951
-0.17926542 -4.5812201 -3.0109215
0.35190767 -4.2500587 -3.1983709
0.66529214 -4.2090931 -3.4867401
4.044035 -3.8909085 -3.8273156
4.4925179 -3.7847385 -3.8057244
5.1085272 -3.4397111 -3.70505
5.7203975 -3.2032857 -3.4805458
0.32700616 -3.5402434 -3.0999157
5.6895747 -2.5987623 -3.5901268
0.049282029 -2.8593967 -3.0517628
5.5827074 -1.9131918 -3.6104333
5.9851279 -1.96469 -3.3261337
-0.44445354 -2.0236292 -2.8147709
-0.2532863 -2.2375159 -3.0593343
5.5391164 -1.1976274 -3.6391561
5.9158621 -1.0410826 -3.350841
-3.3098133 -1.7084106 -2.3612783
-2.8527648 -1.7917929 -2.4789188
-2.2258213 -1.7258617 -2.5346246
-1.5334713 -1.5308399 -2.5796635
-0.69755322 -1.5306627 -2.8749201
-0.47274435 -1.7679574 -3.2693577
5.3717947 -0.48283041 -3.6360688
5.8527679 -0.41636211 -3.3325341
-3.4342825 -1.3390176 -2.3384705
-2.9496872 -1.2612242 -2.5484624
-2.2755098 -1.1852205 -2.678035
-1.5758604 -1.0194855 -2.7176068
-0.91083211 -0.92005128 -2.9191077
-0.57401097 -0.74859065 -3.223896
4.7098365 0.37931079 -3.6891105
5.2435923 0.16753437 -3.5325053
5.7806339 0.25285965 -3.2204697
-3.0462363 -0.6197477 -2.5337741
-2.3857388 -0.49032003 -2.6761639
-1.705282 -0.36173981 -2.782212
-1.0335834 -0.22288673 -2.9788437
-0.45037532 -0.015765712 -3.1321867
3.9367204 0.95802659 -3.5683298
4.4444804 0.83632261 -3.5366764
5.1317029 0.85803908 -3.3497899
5.6129432 0.79444993 -3.1732111
-3.0835066 0.051862732 -2.4525058
-2.5113885 0.2189676 -2.6391957
-1.8232243 0.3417502 -2.6887503
-1.1442268 0.47212601 -2.8111625
-0.47181147 0.61044395 -2.9702828
0.15089558 0.75147605 -3.1201599
0.81490827 0.92848253 -3.1830504
1.5058147 1.1375601 -3.2418902
2.226177 1.2490847 -3.2479155
2.9367716 1.2871058 -3.2690136
3.6490724 1.3441415 -3.3247623
4.3276701 1.4434817 -3.2933159
4.9132409 1.4806058 -3.1411819
-2.9965789 0.59361726 -2.337868
-2.5627067 0.81797105 -2.4272611
-1.9045761 1.045079 -2.5089953
-1.2377303 1.1765906 -2.5741634
-0.57657319 1.2875091 -2.7491875
0.075635478 1.4418366 -2.8953447
0.75034004 1.5470858 -2.9441121
1.4457631 1.6963228 -3.0470812
2.1741664 1.788376 -3.0538902
2.8393898 1.8950834 -2.9927068
3.5142658 1.951561 -2.971246
4.2051625 1.9016603 -3.0430515
-1.3076987 1.5531082 -2.4477842
-0.37957376 1.6768771 -2.5719991
0.017601982 1.8534961 -2.6238194
0.64934897 1.9984447 -2.6695678
1.4007822 2.1788089 -2.8210089
2.0552843 2.3233011 -2.8482344
2.7481167 2.5064297 -2.8540359
3.259814 2.4632163 -2.8497839
-5.5200224 4.6990213 -2.2927897
-4.711235 4.8569689 -2.3185933
-5.9832911 5.3805065 -1.9973888
-5.7963676 5.2664952 -2.2737498
-4.5404463 5.4125175 -2.3063757
-4.5479293 5.6981106 -2.3389456
-6.2142997 5.9815965 -2.1543949
-5.9780531 5.9085708 -2.2822919
-4.8701181 6.2686453 -2.2382641
-4.6049671 5.9384627 -2.4528296
0.34868091 7.4631405 -2.4582086
-6.2300625 6.4195981 -2.3509691
-5.7637663 6.6392784 -2.1704273
-5.2880282 6.6123915 -2.277494
-0.88686234 7.750248 -2.3215837
-0.26041299 7.7497511 -2.5556042
0.28406495 7.8649888 -2.6876407
-1.0526959 8.2698355 -2.3832715
-0.39970702 8.4291849 -2.618516
0.116381 8.4740667 -2.7455807
-1.025104 8.9851112 -2.3388047
-0.5386427 9.1609144 -2.5873194
-0.11701266 8.9974804 -2.8521464
-0.68398201 9.5038929 -2.3894186
-1.2443871 -6.0134459 -2.0675116
-0.85754949 -5.9316921 -2.3921311
-0.03526096 -5.7584233 -2.4547913
0.59276104 -5.4069958 -2.568707
1.2684163 -5.2632909 -2.6314194
1.9679148 -5.1998281 -2.6887157
2.657305 -5.1379237 -2.7411168
3.3493819 -5.0695395 -2.7709324
4.0612178 -5.0201492 -2.7645397
4.7234993 -5.0371742 -2.8703921
5.3253489 -4.714406 -2.904969
-0.90448052 -5.2302556 -2.3210096
-0.59974343 -4.7660317 -2.6467102
5.5401726 -4.1251926 -3.0082059
5.7320762 -3.8541434 -2.8282635
-0.66718787 -4.7513051 -2.2354434
-0.27833396 -4.5271401 -2.3538523
0.25872976 -4.1208463 -2.4345028
6.0713944 -3.3393652 -3.0270016
6.2938948 -3.0403655 -2.8353641
-1.0508702 -3.5544846 -1.9457631
0.16613288 -3.571023 -2.3901634
6.0603938 -2.6082652 -3.2165811
6.3689995 -2.4547393 -2.9121206
-1.6991107 -3.0882804 -1.91799
-1.2388705 -3.1357315 -2.0593886
-0.54359996 -2.99277 -2.1323197
-0.089993104 -2.9726074 -2.4407244
6.418335 -1.7542884 -2.993444
6.7150664 -1.5173167 -2.7158904
-3.841809 -2.6158619 -1.6293409
-3.3676043 -2.6262047 -1.9007273
-2.7469568 -2.6124368 -2.0855796
-2.0645123 -2.5420752 -2.1054943
-1.3953817 -2.4011688 -2.32622
-0.70569283 -2.2984347 -2.4240532
-0.25292355 -2.481957 -2.6117461
6.3130703 -1.0088799 -2.9917214
6.7001047 -1.0877304 -2.6896703
-4.1400099 -2.1184869 -1.8104856
-3.5597098 -2.0835783 -2.1633806
-2.9613838 -2.129313 -2.3285477
-2.1287918 -2.0278945 -2.3960681
-1.4990872 -1.8954933 -2.4564555
-0.9337576 -1.7988911 -2.5241508
6.235148 -0.37782317 -2.9894407
6.5498314 -0.32113701 -2.6626697
-4.7372565 -1.4502048 -1.607339
-4.3195963 -1.5093434 -1.9245224
-3.7534323 -1.3367542 -2.2319098
6.1243691 0.32062858 -3.0764077
6.5105596 0.34818536 -2.7712176
-4.8249335 -0.90902478 -1.5959889
-4.4026022 -0.78480375 -1.8663516
-3.7446551 -0.69480318 -2.1849148
-3.3834608 -0.41327101 -2.2902558
5.9176354 1.0617732 -2.8668725
6.3871846 0.8887257 -2.643868
-4.8692122 -0.40390331 -1.5057817
-4.5159602 -0.1342342 -1.6977526
-3.8287861 -0.064156041 -2.0643225
-3.3893671 0.13023283 -2.2466066
5.1797638 1.6888474 -2.9103603
5.6919999 1.6169586 -2.6609669
-4.4279513 0.42144126 -1.5829295
-3.9459631 0.62386054 -1.8660059
-3.3118417 0.78725702 -2.1683743
-2.7233856 1.1054716 -2.2861404
-2.1630685 1.2731087 -2.3211448
-0.86027271 1.5201672 -2.458967
3.7361832 2.2366557 -2.8287778
4.2735157 2.2087986 -2.753334
4.9331164 2.2214067 -2.6579483
5.4861054 2.1969731 -2.4866097
-3.9672797 1.2104527 -1.6222357
-3.4114835 1.4757006 -1.8689497
-2.7475262 1.5912087 -2.0770881
-2.0331264 1.703505 -2.135664
-1.3791595 1.8563643 -2.2190812
-0.70262998 2.0071383 -2.2321961
-0.041438892 2.1843035 -2.2862463
0.66810125 2.3367157 -2.4346113
1.3092279 2.4724333 -2.4806573
1.9584374 2.6379764 -2.5743949
2.785835 2.8061945 -2.7148631
3.4624708 2.7444091 -2.6670814
4.1460495 2.8001099 -2.4882059
4.7308793 2.7227848 -2.3532429
-3.3880227 1.9222336 -1.5944804
-2.7861278 2.1459413 -1.7334259
-2.1418316 2.3331938 -1.7869943
-1.497245 2.3373291 -1.8041832
-0.73723346 2.4084404 -1.8643701
-0.047722057 2.5598738 -1.9179206
0.64665931 2.7075257 -2.0729005
1.3166945 2.9257715 -2.1308227
2.0027702 3.0410151 -2.2227941
2.6739414 3.1792939 -2.3570797
3.3243105 3.2802365 -2.320776
3.8827345 3.2390759 -2.2587817
-5.1587248 4.2928023 -1.4147453
-4.7817931 4.3434601 -1.410798
-5.7896962 4.809577 -1.5176091
-5.4637718 4.5299039 -1.6348689
-4.5472097 4.7721124 -1.6574615
-5.9718103 5.3034935 -1.4971404
-5.7639723 5.1116467 -1.5748352
-4.5461049 5.5317011 -1.5905287
-4.507154 5.610538 -1.9204352
-6.0797195 5.8160338 -1.5278819
-5.651185 6.238523 -1.4332755
-4.9831944 6.1200714 -1.5920751
-2.1004832 6.7288504 -1.5893978
-1.4570475 6.7277369 -1.7231457
-0.81219 6.9034929 -1.8262174
-0.10292177 7.1218839 -1.9551234
0.29401034 7.3488584 -2.0563655
-5.5778885 6.4685698 -1.755177
-2.2000213 7.3792925 -1.5894581
-1.6083982 7.4189706 -1.9416709
-0.90537733 7.5317197 -1.9519138
-0.23627739 7.6742516 -1.932493
0.27392417 7.6592255 -2.1372979
-2.1037691 7.8616877 -1.5557674
-1.7066998 8.1361542 -1.8276153
-0.99876398 8.3015814 -1.7740982
-0.50005323 8.3508997 -2.0809848
-1.5522578 8.693985 -1.61114
-1.107555 9.019558 -1.7811701
-0.72203225 9.0821123 -2.0111234
-0.95844156 9.3938789 -2.0280955
-0.79611999 9.4567785 -2.0615034
-2.6784146 -6.2679949 -1.3852974
-2.0463612 -6.159164 -1.6392201
-1.4007483 -6.0609126 -1.7486404
-0.66219848 -6.0932527 -1.730595
0.0080340654 -5.5828638 -1.7875394
0.64354026 -5.3842616 -1.8072731
1.3554432 -5.2511015 -1.8796868
2.0045278 -5.1158934 -1.9177792
2.6941111 -4.9762702 -1.9809213
3.3898363 -4.8342066 -2.0359418
4.1468954 -4.7782674 -2.1557012
4.8075399 -5.0215178 -2.2138221
5.4976821 -4.750896 -2.2536495
-2.6998427 -5.7323623 -1.2560967
-2.1402266 -5.4958868 -1.4507859
-1.5218728 -5.2900982 -1.7145325
-1.0481975 -5.0695586 -1.8701003
3.5201843 -4.7884278 -2.2275262
3.8127263 -4.7452221 -2.0582559
5.6747923 -4.2679482 -2.4444277
6.0452504 -3.9652011 -2.1779566
6.6791143 -3.6590469 -2.0477116
7.185751 -3.470372 -2.0575178
-1.9226298 -5.0044665 -1.263991
-1.6376073 -4.6119556 -1.4445628
-0.95645672 -4.5262341 -1.8164306
-0.3374629 -4.2900319 -1.9139936
0.12989332 -4.1589808 -1.9404187
6.241292 -3.5172803 -2.4300382
6.6120324 -3.1577477 -2.2511125
7.2984719 -3.0632708 -2.1368625
7.79673 -2.8833406 -2.1247377
-2.1141186 -3.8265522 -1.1751567
-1.7545888 -3.9581292 -1.5157232
-1.0953757 -3.9156215 -1.8527687
-0.40019035 -3.7452376 -1.8985043
0.053970948 -3.736845 -1.9354169
6.7188287 -2.5439792 -2.4324617
7.1531334 -2.4332714 -2.135334
7.8590569 -2.3770113 -2.102994
-3.0794904 -3.3240783 -1.1789265
-2.5373294 -3.317703 -1.3277184
-1.9291952 -3.3361795 -1.6531658
-0.58251148 -3.330513 -1.9584935
7.0266256 -1.7338082 -2.286721
-4.4293475 -2.7339382 -1.0294558
-4.010489 -2.8432896 -1.1939863
-3.4176037 -2.9934676 -1.4002531
-2.7580314 -3.0077295 -1.6816468
7.0488963 -1.021697 -2.2799718
-4.6856818 -2.3106432 -1.0909265
-4.3567843 -2.3625534 -1.3953431
6.9180088 -0.33327311 -2.241302
-4.9825907 -1.6904948 -1.1404243
6.9090056 0.38653606 -2.2146289
-5.4236994 -1.0620573 -0.7950666
-5.1570096 -0.9715957 -1.1487275
6.6819954 1.089749 -2.17501
-5.1745911 -0.25287008 -1.078909
-4.8301191 0.12159838 -1.3865137
6.0498986 1.7845659 -2.3510704
6.3749523 1.7059093 -2.0559287
-5.148766 0.39824831 -0.93761331
-4.7236214 0.57486612 -1.2916873
5.7742991 2.4060075 -2.1080444
6.2065177 2.1826408 -1.8729486
-5.0750694 1.0126563 -0.7660436
-4.7010756 1.1534134 -1.0700166
-4.1642065 1.4475377 -1.3421305
4.9431629 3.0051405 -2.0243468
5.4763613 2.879276 -1.8680315
-5.3399439 1.7837113 -0.75779873
-4.7977276 1.8630278 -0.98207611
-4.1336188 2.000083 -1.1418675
-3.5256412 2.1904643 -1.2651377
-2.9205198 2.456198 -1.3884118
-2.1874683 2.6420093 -1.5289214
-1.3866899 2.6727865 -1.474731
-0.75078338 2.7141886 -1.400108
-0.047570005 2.8737979 -1.4822389
0.61790484 3.0056856 -1.5921224
1.2114936 3.220304 -1.747934
1.9772525 3.3784006 -1.8462441
2.6349823 3.5267909 -1.9355223
3.3668499 3.6152894 -1.9353335
4.0903034 3.50892 -1.8541868
4.6776061 3.3928013 -1.7368867
-5.5466852 2.4446747 -0.72133219
-4.9299107 2.5858753 -0.98908705
-4.2475419 2.7089877 -1.0613236
-3.5623882 2.816139 -0.96794039
-2.8799698 2.8034532 -1.0289556
-2.1769559 2.9002945 -1.2069207
-1.530369 2.9553852 -1.1425753
0.59153599 3.2474074 -1.2351089
1.2766435 3.5212066 -1.4458411
1.8992616 3.6684673 -1.5009887
2.6481631 3.8118231 -1.5474415
3.3012381 3.8145874 -1.5961938
3.8321047 3.8130577 -1.5047898
-5.5499835 3.1700656 -0.64706403
-5.0489082 3.3004034 -0.87423939
-4.3684063 3.4239056 -0.95644027
-3.7088544 3.4785752 -0.84261626
-3.2627079 3.3520408 -0.76508868
-5.6034551 3.7813461 -0.58956522
-5.1942897 3.9910345 -0.8612873
-4.483489 4.1121349 -0.93534523
-3.956094 4.0209308 -0.75244051
-5.7350278 4.6538477 -0.8082034
-5.5409808 4.3931055 -0.93654627
-4.3678007 4.7886691 -0.96859986
-4.1905909 4.4941664 -0.6495015
-2.3996346 5.4276037 -0.80444294
-2.0989404 5.5302277 -0.82933813
-5.8760562 5.2472453 -0.81846887
-5.7301254 5.3130097 -0.78516072
-4.6959252 5.4914789 -0.87531525
-3.1429632 5.8112946 -0.77788234
-2.654417 5.8001499 -0.98803931
-1.9938123 5.9584432 -1.1815935
-1.3609401 6.1549973 -1.2171406
-0.73583382 6.3959646 -1.1499584
-5.9294314 5.6966233 -1.0210714
-5.5105033 5.9023991 -0.84876543
-5.0295076 5.8901529 -1.0075188
-3.2274823 6.3420205 -0.75600576
-2.8193977 6.541636 -1.1109669
-2.3827953 6.5593581 -1.4084344
-1.2336696 6.9898772 -0.89042741
-0.68646634 6.8316283 -1.2090566
-0.12720637 6.9338017 -1.3608882
-2.8552873 7.1437378 -0.98216575
-2.5187156 7.3737254 -1.2963945
-1.4759746 7.4074965 -1.0066798
-0.94113785 7.4452882 -1.3637251
-0.31789792 7.3338833 -1.5241249
-2.6738656 7.643394 -0.81591803
-2.315686 7.9429893 -1.0732756
-1.6067798 8.188571 -0.97568566
-1.2225125 8.2608166 -1.3309301
-1.616881 8.6191635 -1.1414208
-1.2248373 8.8354244 -1.2739996
-3.1921077 -6.3838148 -0.68679726
-2.6447575 -6.487577 -0.85600823
-1.9424515 -6.3867283 -0.91235548
-1.2555784 -6.257257 -0.93999833
-0.57422203 -6.120532 -0.99964207
0.11047579 -5.687151 -1.1261024
0.71529347 -5.4225535 -1.1141673
1.4026897 -5.3000927 -1.1662704
2.116817 -5.1562467 -1.2446347
2.7656646 -5.0210309 -1.2816787
3.4394495 -4.891602 -1.3472831
4.191062 -5.034399 -1.4406548
4.9249554 -5.0939102 -1.4982853
5.599052 -4.8867993 -1.5771805
6.1927686 -4.5632162 -1.5962517
6.8783526 -4.3447981 -1.5389266
-3.1889615 -5.8918915 -0.56162864
-2.8303394 -5.5519991 -0.76524359
-2.3943408 -5.2977905 -1.0118465
6.2989616 -4.2011552 -1.8686285
6.8244104 -4.0295029 -1.8305187
7.4493966 -3.7795174 -1.7655743
8.0637817 -3.4541047 -1.6151614
-2.1203136 -4.8059816 -0.79876578
7.6566176 -3.2462535 -2.0416708
8.1377134 -3.0194495 -1.9074755
8.5663748 -2.7721801 -1.6816044
-2.1877208 -4.0617251 -0.75108701
7.3432612 -2.1122651 -1.9042628
7.9093089 -2.1481173 -1.9944818
8.6135988 -2.1426947 -1.7778072
-3.6889002 -3.4435694 -0.49030036
-3.1788716 -3.5972283 -0.71700102
-2.5153255 -3.6858661 -0.85014433
7.3353505 -1.67356 -1.790921
7.8370438 -1.5757176 -1.6816692
8.5385752 -1.506034 -1.6332126
-4.4928231 -2.9125791 -0.46179849
-4.0386891 -3.1455324 -0.59103316
7.309432 -1.0415298 -1.7898684
7.5778928 -0.96957213 -1.4325901
8.3493423 -1.0882821 -1.4038486
-5.12672 -2.3192182 -0.17256315
-4.9181633 -2.477519 -0.50451869
7.2118483 -0.32981426 -1.8512704
7.3840127 -0.24722652 -1.5214756
-5.4002929 -1.8033226 -0.36715209
-5.1429057 -2.0153878 -0.69568044
7.1350069 0.20464332 -1.8408766
7.2409091 0.44203997 -1.5245771
-5.5820141 -1.1536976 -0.3623746
6.9283624 1.1906835 -1.6955194
7.1340938 1.0707624 -1.4137855
-5.656343 -0.42460567 -0.30878109
-5.5028129 -0.052132353 -0.62381631
6.7347884 1.778795 -1.4667661
6.9954119 1.5092434 -1.2294736
-5.653697 0.23393078 -0.1615292
-5.4804602 0.43917429 -0.44498652
5.97577 2.6194189 -1.6200095
6.3433576 2.3512235 -1.3658112
-5.8154206 1.1099426 -0.088999525
-5.3766236 1.0291051 -0.41578585
5.71416 3.039685 -1.3095723
6.1022034 2.7523062 -1.148896
-6.116868 1.6613287 -0.17592029
-5.6288295 1.6225594 -0.51494592
-0.57744497 2.9612556 -0.9469201
-0.31468379 3.0107939 -0.97518438
4.3167748 3.7738881 -1.315758
4.8547707 3.6132755 -1.1963112
5.3488541 3.3888898 -1.1575937
-6.2279563 2.2999113 -0.19403009
-5.862144 2.4416006 -0.52091318
-2.7670989 3.1281712 -0.62542731
-2.1562114 3.1662641 -0.50434697
-1.4500494 3.1456451 -0.58923453
-0.78476351 3.0395744 -0.62712884
-0.043548182 3.1874118 -0.72603124
0.60973281 3.4578733 -0.77984357
1.2690773 3.7762341 -0.81565803
1.9327266 3.9797919 -0.88249379
2.620841 4.1052113 -0.98016912
3.3311222 4.1181502 -1.0197704
4.0414391 3.981184 -1.0380666
4.557097 3.8831279 -0.8632589
-6.223629 2.9764721 -0.047706112
-5.8801584 3.1513712 -0.38174933
-3.4552779 3.708832 -0.64702529
-2.9556859 3.5857942 -0.42332989
2.1460199 4.1424966 -0.59200507
2.5462263 4.2275262 -0.61096793
-6.2207747 3.5152214 0.10766865
-5.9504509 3.7886224 -0.21436499
-3.7046587 4.2427988 -0.51809829
-3.1790333 4.2612147 -0.24205811
-5.9450092 4.4540854 -0.14341535
-4.3416591 4.9694719 -0.45714784
-3.9140189 4.8217607 -0.3553558
-3.1685977 4.9560156 -0.41253567
-2.5477421 5.1056781 -0.44560075
-1.9621131 5.4512081 -0.48865837
-5.8474994 5.0582752 -0.13212897
-5.4133277 5.49301 -0.13121094
-4.7077684 5.3634605 -0.19684489
-3.9143455 5.4651346 -0.16653965
-3.40818 5.6252694 -0.52907628
-1.6598055 5.7528663 -0.40467203
-1.2389486 6.0910678 -0.52146804
-0.72024262 6.431747 -0.69740283
-5.3046637 5.7346821 -0.4570213
-3.8202231 5.9940042 -0.067458883
-3.5263264 6.3450189 -0.34018701
-2.0188971 6.6546073 -0.27200437
-1.39855 6.7238178 -0.51850283
-0.68968588 6.7066479 -0.6614089
-3.2869151 6.8358312 -0.25483429
-2.9150248 7.2516999 -0.30953574
-2.0960152 7.2952814 -0.27388209
-1.7694501 7.3899503 -0.65127254
-2.6746781 7.6079426 -0.55686557
-2.2223477 7.8216705 -0.44094503
-1.7716222 8.0112104 -0.58696908
-3.2056499 -6.425827 -0.052807674
-2.5787055 -6.5185294 -0.13768454
-1.8851392 -6.4038363 -0.21037047
-1.1808826 -6.2705722 -0.22776888
-0.51528782 -6.0979357 -0.25474846
0.1251417 -6.0347772 -0.33163923
0.94355047 -5.4750609 -0.44542384
1.4690024 -5.3370142 -0.4706232
2.1551774 -5.202487 -0.53322148
2.8539944 -5.0607991 -0.60994959
3.5732715 -5.044045 -0.64721745
4.2777958 -5.2246375 -0.7731815
4.9116497 -5.0497894 -1.0109997
5.6900568 -4.9023228 -0.93609983
6.3269157 -4.8242998 -0.92094642
7.0103846 -4.5393152 -1.0028658
7.5414448 -4.253757 -0.98293358
-3.1890769 -5.8569489 -0.030727759
-2.8801761 -5.457202 -0.015913799
7.7633233 -4.0638552 -1.1053287
8.2886791 -3.6425607 -1.0688374
8.6554375 -3.2948086 -1.0069233
-2.4915514 -5.1389179 -0.21841644
-2.1076529 -4.7941623 -0.068529382
8.9153423 -2.8592217 -1.1364446
9.172473 -2.5605371 -0.88293248
-2.8120592 -3.9085872 0.1103632
-2.2433593 -4.1031842 -0.065141961
9.0070562 -2.291702 -1.3098661
9.1865692 -2.0590751 -1.0377226
-3.8228748 -3.5773718 0.14403497
-3.1473477 -3.8132298 -0.044250086
9.10604 -1.4093539 -1.0957345
-4.5175114 -3.0879114 0.22323878
-4.1561751 -3.3035684 -0.096670613
7.847445 -0.81738824 -0.96941406
8.4949465 -0.79496449 -0.99534529
8.9522104 -0.89758557 -0.92332369
-5.2052474 -2.4327645 0.28455245
-4.9448495 -2.7363551 0.20040275
7.6027956 -0.24774997 -0.89409751
-5.5409241 -1.8667822 0.32310587
7.4507637 0.44197065 -0.85983211
-5.7674155 -1.2168083 0.36506248
7.2870979 1.1222392 -0.82065636
-5.8590803 -0.50487512 0.38162303
6.8806009 1.9456655 -0.82380873
7.06848 1.6573255 -0.73281127
-5.8130112 0.24444897 0.4318015
6.5698833 2.4169135 -0.70468342
-6.4179473 1.096611 0.68235236
-6.0116172 0.88807398 0.41258579
5.8696113 3.1533916 -0.60594279
6.1808114 2.852494 -0.62215537
-6.5462503 1.5353638 0.64306396
-6.3894615 1.5747459 0.28562367
5.016572 3.7473609 -0.49077207
5.4581027 3.4894454 -0.52646023
-6.6605177 2.2033246 0.70813793
-6.4869313 2.247371 0.34218711
-2.0268209 3.2664924 0.14490221
-1.4032345 3.2421319 0.1200968
-0.71144205 3.1560028 0.037978575
-0.015284732 3.3284898 -0.016194806
0.65524316 3.6328344 -0.080469832
1.2664284 3.8940749 -0.15652643
1.7520249 4.0422873 -0.47158462
3.4907663 4.2870784 -0.37341577
4.0902219 4.1441793 -0.38443381
4.6442308 3.9440725 -0.40369529
-6.6888399 2.7652893 0.75288588
-6.5495744 2.9945195 0.48099977
-2.6673894 3.7737186 0.1944558
-2.378979 3.4735105 0.29271722
1.5583507 4.0176492 0.064212784
1.9964343 4.1478076 -0.15765305
2.6594446 4.293582 -0.22885089
3.179003 4.3329005 -0.19804586
-6.4069233 3.6447723 0.57834512
-2.8534977 4.3257546 0.27170971
-6.4048381 4.3291078 0.63052213
-6.1947432 4.5313253 0.28820807
-2.7764888 4.7182546 0.38721156
-2.4903312 5.0861096 0.28540099
-2.0568731 5.4331293 0.0050857812
-6.4212089 4.779922 0.80198377
-5.9657903 5.0570045 0.61086893
-5.2913504 5.3673592 0.56930381
-4.6104259 5.4367657 0.48211551
-4.0846825 5.6583433 0.43691921
-2.5239799 5.8150835 0.46361732
-1.9310329 5.9406662 0.11613596
-1.5255754 6.2552342 -0.063798144
-3.8325546 6.040688 0.32760793
-3.3632069 6.307981 0.46155232
-2.6757519 6.4618998 0.35908914
-2.1678612 6.4937243 0.011250094
-1.5534502 6.4441133 -0.077469245
-3.2123916 6.742909 0.17639367
-2.7811613 6.9574003 0.17955874
-2.3115256 7.0293136 0.079691589
-3.0388393 -6.3720551 0.42019826
-2.5868824 -6.4031119 0.62638921
-1.8201716 -6.4196663 0.4978013
-1.2773389 -6.283874 0.38864973
-0.23422186 -5.9189143 0.037443787
0.29270023 -5.9320459 0.26381379
0.84434426 -5.8393331 0.26233867
1.5375904 -5.382153 0.2320216
2.2195332 -5.2410383 0.18720743
2.921191 -5.0997405 0.08721821
3.6482272 -5.1495214 0.029790655
4.2367911 -5.3021216 -0.0015704185
5.9770346 -4.8142653 -0.1663305
6.3645239 -4.8390493 -0.25249577
7.0621805 -4.6511245 -0.28872275
7.6028614 -4.3274946 -0.29685533
-3.0618713 -5.9747014 0.32144535
-2.633723 -5.7118158 0.56150728
-2.0419719 -5.3339581 0.64997697
-1.5625911 -5.1238737 0.78908145
7.9302502 -4.0884728 -0.30659825
8.3288193 -3.7884161 -0.39176631
8.7210054 -3.4240229 -0.37847632
-1.8762779 -4.8470798 0.34191293
-1.5133928 -4.6770892 0.63068879
9.036293 -3.0035927 -0.45773476
9.2585764 -2.6111553 -0.41073996
-2.8271625 -3.9850204 0.70924586
-2.2276909 -4.059957 0.59119964
-1.6235466 -4.2103467 0.59376228
9.3564615 -2.108655 -0.43307614
-3.7004735 -3.6808944 0.78410923
-3.1973178 -3.9181459 0.70066577
9.3487835 -1.3968447 -0.40806299
-4.4945874 -3.154062 0.89607579
-4.0970078 -3.4116223 0.76531565
7.9548235 -0.65817255 -0.22367881
8.5117655 -0.58954149 -0.26461059
9.0922861 -0.82189995 -0.34313351
-5.1764412 -2.4710457 0.99765801
-4.8559952 -2.7570887 0.93364114
7.7026281 -0.24205725 -0.20821716
-5.5340705 -1.8939946 1.0248889
7.5382619 0.42266077 -0.16719355
-5.8638239 -1.2688322 1.3267471
-5.8432317 -1.2541226 1.0591315
7.3539219 1.0977982 -0.12570532
-5.9517851 -0.58893448 1.1054953
6.9526391 1.9567033 -0.0012374967
7.1233659 1.656716 -0.10853027
-5.8929772 0.16878708 1.1235442
6.6558781 2.3865111 -0.018676862
-6.4606524 0.96732098 1.2149117
-6.0747142 0.69490761 1.1580261
5.9610271 3.1331298 0.12594454
6.2815752 2.8215535 0.055769667
-6.7107816 1.4833034 1.2420268
5.1372204 3.754766 0.22088934
5.5496531 3.4840138 0.15790923
-6.8015499 2.1551068 1.2715005
-1.9010475 3.2400186 0.88478476
-1.3591292 3.2125187 0.81171638
-0.65713346 3.1646523 0.75147355
0.046431288 3.3493137 0.67378092
0.70028156 3.656898 0.63375574
1.1903583 3.8745203 0.5783847
3.6655519 4.2895122 0.35253638
4.1570244 4.166656 0.30813861
4.7390652 3.9605207 0.26080996
-6.7355528 2.8237865 1.3058195
-6.6154351 3.1670907 1.1352445
-2.5715878 3.8949268 0.94783622
-2.3256805 3.5795345 0.90729374
1.5180401 3.9895101 0.61149812
2.0295794 4.1576586 0.51961285
2.709728 4.3165722 0.47374052
3.2996249 4.3418989 0.4137044
-6.7541647 3.5424421 1.5631747
-6.5961938 3.5863864 1.1975415
-2.7695813 4.291769 0.97980225
-6.8895159 4.238493 1.5047445
-6.7411747 4.2607441 1.154909
-2.9641397 4.9507861 1.0400746
-2.7364259 5.2280769 0.71820623
-6.566834 4.7982769 1.3687953
-5.9272966 5.1686358 1.336367
-5.2576704 5.388886 1.2837877
-4.573051 5.4978266 1.1957761
-3.86466 5.6083388 1.1470169
-3.2093127 5.6170549 0.98811764
-2.793283 5.6116691 0.73872906
-2.2857156 -6.3062525 1.1392636
-1.8190465 -6.3575516 1.2185795
-1.3126419 -6.3804288 1.2355927
0.51295561 -5.9577446 1.0204434
0.96389133 -5.7937069 0.94999498
1.6238273 -5.4043975 0.90437973
2.2980206 -5.2641544 0.88167584
2.9865773 -5.1288328 0.80607152
3.7218518 -5.0795584 0.70287675
4.3800135 -5.2351599 0.6910916
5.0356026 -5.1547771 0.75639588
5.873683 -4.96487 0.66253811
6.4542933 -4.8282828 0.47764462
7.1159253 -4.5443206 0.42519277
7.5767355 -4.3045082 0.31174022
-2.3189828 -5.9101267 0.96409446
-1.9061377 -5.6459312 1.231375
-1.4296079 -5.2254634 1.1958152
7.8969088 -4.0690889 0.42634809
8.3934412 -3.708442 0.33628762
8.7802763 -3.3806074 0.16932972
-1.3157998 -4.6979604 1.2486922
9.0590219 -2.9562871 0.34693724
9.3010883 -2.5872655 0.10869505
-2.6899393 -3.9611232 1.1793566
-2.2308242 -3.950619 1.363806
-1.5039629 -4.1642756 1.303655
9.2421789 -2.4702854 0.60180789
9.3536854 -2.1372058 0.28859073
-3.592149 -3.6452248 1.4513723
-2.9639323 -3.8494928 1.4661149
-2.4015081 -3.8455813 1.6659775
9.3221312 -1.4489745 0.32253432
-4.3796062 -3.114063 1.5578185
-3.9423192 -3.355835 1.6457692
7.9697132 -0.82324952 0.50617343
8.6144466 -0.72173685 0.43550599
9.1097183 -0.92847544 0.31492358
-5.0690894 -2.4721043 1.6181605
-4.7507744 -2.7133741 1.6985669
7.7159543 -0.27580363 0.53536969
-5.4133854 -1.9105747 1.7156093
7.5552373 0.38517207 0.53328604
-5.8486419 -1.2731121 1.4757171
-5.7583084 -1.2620398 1.8123729
7.3572354 1.0572269 0.57606626
-5.8502593 -0.61438829 1.8148067
6.9957685 1.8039116 0.67744976
7.1762319 1.5228853 0.53461671
-5.7645483 0.15480162 1.8133011
6.6472836 2.3540795 0.69715863
-6.3881197 0.92574888 1.8604578
-5.9764104 0.71861285 1.9234877
6.0111666 3.081022 0.83550304
6.3211551 2.7729557 0.68913269
-6.7299223 1.447807 1.9457407
-0.37745398 2.8237376 1.7031633
5.1603975 3.7104268 0.92514342
5.5833006 3.4427567 0.85600394
-6.8374119 2.1175175 1.976891
-1.8891404 3.0086219 1.5941639
-1.2544296 3.0283449 1.4933275
-0.57296616 3.0122695 1.4087774
0.11435996 3.1816623 1.367269
0.77471119 3.568944 1.3118702
1.3670785 3.8346488 1.3365706
1.9277103 3.9727697 1.5301838
3.6196997 4.2244072 1.1465418
4.2207036 4.0974994 1.002165
4.7868433 3.9129262 0.94635427
-6.711997 2.8329427 1.9873796
-2.5496552 3.7817709 1.6764641
-2.2580304 3.4776056 1.5750303
1.6396768 3.9723632 1.154397
2.1306417 4.0964527 1.2002374
2.7991383 4.2408504 1.1505727
3.3025959 4.2910528 1.0187761
-6.7892895 3.5158322 2.0156722
-2.8692551 4.2316833 1.6894637
-6.9183393 4.1895657 2.0491891
-3.1190717 4.8968043 1.7360429
-6.5667663 4.7819395 2.0561547
-5.8573461 5.1727471 2.0061681
-5.195447 5.3781695 1.967871
-4.5086746 5.498311 1.9099677
-3.7927048 5.5231986 1.8320321
-3.3293507 5.3538404 1.7769361
-2.2938545 -6.3523216 1.9671793
-1.6990426 -6.4218321 1.8833137
-1.0425916 -6.3137679 1.9136164
-0.28730518 -6.1919255 1.9525205
0.41628957 -6.0267005 1.7537819
1.0126922 -5.6900492 1.6726309
1.6560147 -5.4132304 1.5989563
2.3588178 -5.2680297 1.5741264
3.0470765 -5.1325822 1.4993697
3.7253323 -4.9944258 1.4173436
4.4476781 -4.9924927 1.3279177
5.1277094 -5.1058946 1.3163178
5.8401346 -5.0058432 1.2262098
6.5009151 -4.6567063 1.1655563
7.0803752 -4.4205093 0.92435527
-2.3248217 -5.7686272 2.0855968
-1.9560122 -5.4402661 1.8942275
4.4011679 -4.8439531 1.7029427
6.7592978 -4.3352776 1.4322343
7.1494823 -4.1049056 1.2855735
7.7622209 -3.9029481 1.113897
8.2973242 -3.5920408 0.91977823
-1.6961772 -5.1313405 2.0678253
-1.4239386 -4.716186 1.9305878
8.4621696 -3.1992896 1.1807017
8.850873 -2.876678 0.92354745
-1.8582807 -3.8677547 1.6817322
-1.4900564 -4.069056 1.9892457
8.6100683 -2.6060565 1.3881531
8.9684505 -2.2599864 1.0880165
9.2406435 -2.0518599 0.70713365
-3.4197147 -3.4805644 2.0325475
-2.8852828 -3.603976 2.1185496
-2.2112844 -3.6857221 2.0796301
-1.6702058 -3.7009923 2.1441998
7.6295128 -1.7412032 1.4093571
8.0589724 -1.6017591 1.3201374
8.8103256 -1.580753 1.1796949
9.1856403 -1.5674062 0.78602076
-4.2131686 -3.0009644 2.2203815
-3.7515547 -3.2475362 2.2735074
7.5796504 -1.0926285 1.3778625
7.9081388 -1.1037335 1.036961
8.6556721 -1.0689245 0.93833572
9.0550613 -1.1316005 0.73148209
-4.9337149 -2.3430674 2.223561
-4.6104031 -2.581176 2.3717377
7.4867229 -0.38275772 1.4242282
7.6193538 -0.31882435 1.0564061
-5.1397905 -1.9118297 2.3799305
-4.8428164 -2.1743448 2.6988571
7.3570037 0.31173438 1.4950944
7.4887919 0.30696303 1.1415012
-5.4005666 -1.2358828 2.4780171
7.1928616 0.97575802 1.4194999
7.3308043 0.95682818 1.0500349
-5.4865594 -0.50251293 2.5075245
6.9122953 1.6466655 1.3889115
-5.4856343 0.15495242 2.3957994
-5.2218056 0.31120032 2.7053282
6.2794647 2.4426868 1.7019836
6.5542769 2.2868366 1.3874822
-6.2466083 1.0351102 2.5486221
-5.8009005 0.80402964 2.5649285
-5.3199263 0.64328569 2.7486036
5.9533033 2.9275808 1.5605652
6.3161244 2.7063911 1.1908534
-6.5358534 1.4176418 2.6154099
-2.1611269 2.3699901 2.5494726
-1.8162334 2.3769698 2.3366516
-1.0553468 2.5559115 2.3180163
-0.44356495 2.6073301 2.132113
0.1963958 2.8133261 2.1437576
0.70118624 3.0073664 2.2753398
4.5795555 3.6733127 1.9275548
5.128654 3.5298414 1.6434352
5.6033182 3.327738 1.4289171
-6.6899614 2.1092257 2.6669323
-2.2755773 2.9876316 2.5413809
-2.0519733 2.8395073 2.1695535
-1.1611195 2.7912884 1.9874883
-0.75550264 2.8004799 1.894944
0.370381 3.0504718 1.875573
0.89812058 3.3212111 1.9780858
1.5396049 3.6464429 1.9786224
2.1936321 3.8713417 1.913993
2.9136338 3.980845 1.890765
3.6023555 4.0265417 1.7748159
4.2775803 3.8745098 1.6759697
4.7438602 3.8340812 1.4564409
-6.5937586 2.7329223 2.6406758
-6.4517426 3.0627816 2.7638729
-2.62221 3.5984664 2.3825953
-2.2825799 3.3434851 2.0832214
2.7412825 4.1311135 1.5553067
-6.6804705 3.6185014 2.6811519
-6.5074525 3.335387 2.7565062
-3.1652324 4.2853942 2.7233889
-3.0070858 4.1400819 2.4075749
-6.7921667 4.0582771 2.6577158
-6.5659008 4.3761029 2.8417411
-3.3196933 4.9044013 2.6935713
-3.1962025 4.83883 2.3544459
-6.3477039 4.7345991 2.6781189
-5.7639551 5.0460773 2.7068334
-5.1112137 5.2798338 2.6488039
-4.4314904 5.4010153 2.5944643
-3.7092421 5.4015636 2.5221612
-3.3023701 5.2431931 2.360008
-2.3468339 -6.4086065 2.6720526
-1.6273551 -6.422451 2.5922232
-0.95420128 -6.2927861 2.5479555
-0.25908691 -6.1663589 2.4772553
0.39869398 -6.0574436 2.4161217
1.0958241 -5.5901666 2.3405693
1.7357099 -5.3890224 2.3193159
2.4177158 -5.2529192 2.2500031
3.0707405 -5.1236215 2.1454318
3.6963623 -4.9974127 1.9996046
4.749567 -4.8179784 1.8242674
5.1868854 -5.0887928 1.9645507
5.8658681 -5.0001707 1.9343655
6.3243341 -4.6442547 1.8690157
-2.3617914 -5.6860242 2.710151
-2.139791 -5.3524585 2.4546726
2.6782107 -5.1881762 2.5657446
3.288578 -5.0716805 2.4560497
3.8663743 -4.9564586 2.2618911
4.3956947 -4.8497782 1.9718838
6.595088 -4.2016912 1.9094533
6.9620705 -3.8050969 1.6668274
7.6737108 -3.6584675 1.5068936
-1.8462722 -5.1180739 2.715265
-1.2201384 -4.6589756 2.6418324
0.76017898 -4.1103067 2.793067
6.7013025 -3.6606791 2.1730292
7.0429816 -3.3547673 1.8438351
7.7111111 -3.2175829 1.6644417
8.2454414 -2.9976039 1.5686998
-1.1880369 -4.038949 2.6434009
-0.92154878 -4.0537515 2.9455502
0.89285451 -3.796916 2.7658408
7.1335034 -2.7471931 2.050596
7.546351 -2.5129516 1.6971912
8.2647638 -2.3883531 1.6039572
8.6205187 -2.114996 1.4460549
-2.7636621 -3.3882265 2.6380031
-2.1386106 -3.3946881 2.7105763
-1.4703703 -3.420882 2.7450602
-1.0163336 -3.5818093 2.9686937
7.2159429 -2.2251296 2.1946852
7.394835 -1.8952973 1.8757694
8.2123079 -1.9101114 1.5140439
8.5594349 -1.9037669 1.4596653
-4.0930309 -2.8387625 2.6726878
-3.5831676 -3.006681 2.8400879
-2.9594984 -3.1201384 2.9632118
-2.2452633 -3.1366904 3.0651944
7.3086934 -1.1457978 1.962069
-4.3308468 -2.4232788 2.9137688
-3.8637583 -2.5675762 3.1378334
7.2342591 -0.43528563 1.9795952
-4.9482832 -1.8498478 2.7625029
-4.612546 -1.8738587 3.1036062
7.1192999 0.22662921 2.0179896
-5.0747337 -1.2027721 2.8502703
-4.7517614 -1.2152259 3.1574035
6.9319534 0.87986583 2.0657945
-5.1703892 -0.68185437 2.8752306
-4.8006787 -0.44155937 3.1704733
-4.4456425 -0.059292421 3.3967981
6.3884773 1.6260883 2.3068457
6.7075224 1.4970858 1.9622424
-4.8646865 0.28337324 3.123651
-4.4379039 0.23110743 3.4164655
5.680573 2.2927117 2.5420673
6.0703144 2.1962547 2.1837521
6.485209 2.0211654 1.8129673
-6.2111235 0.95084387 3.3333826
-5.6763768 0.7056126 3.2703776
-5.1818905 0.60733205 3.1748047
-3.2707167 1.1805506 3.3593934
-2.8960931 1.3336267 3.2867241
-2.3206613 1.5122609 3.0987124
-1.5855743 1.6188424 3.0193336
-0.91088778 1.6676251 2.9610322
-0.24683057 1.8245959 2.915628
0.32965583 2.030473 2.9244277
4.7082667 2.8216078 2.6151547
5.3384376 2.8006089 2.3412218
5.7776008 2.7488768 2.0525439
-6.4596462 1.4261966 3.3264883
-2.7190132 1.7394783 3.2974002
-2.3773634 2.0882146 2.9879644
-1.68268 2.0017798 2.7067416
-1.0266547 2.1761234 2.6332328
-0.3032766 2.253552 2.5854926
0.37308872 2.4684134 2.6575532
0.97729683 2.7316468 2.7463465
1.6810305 2.9926879 2.8315809
2.4076912 3.1697826 2.8127027
3.1120858 3.2236974 2.7269127
3.8203638 3.2705534 2.595
4.4755373 3.3122628 2.3675523
5.0458097 3.2488477 2.130872
-6.5078111 2.105351 3.3521931
-2.9055669 2.9587359 3.3709135
-2.5132985 2.7925928 3.0159743
1.127333 3.1549134 2.433461
1.6750222 3.3303888 2.4880533
2.3168514 3.470279 2.5008664
3.021322 3.6120939 2.4068573
3.670619 3.6873648 2.2788973
4.1840262 3.6379201 2.0756965
-6.4297271 2.7626007 3.4084349
-6.4287462 3.0217054 3.2012026
-3.6928082 3.5016963 3.4680078
-3.2349603 3.470757 3.2392085
-2.780055 3.3798292 2.9258287
-6.4735475 3.2249405 3.384208
-6.4682894 3.5136068 3.4015021
-3.773289 3.7938287 3.4477437
-3.4437845 4.0799499 3.1132903
-6.2879176 4.2048283 3.3961382
-5.7724195 4.5642743 3.5895855
-4.0520163 4.9363241 3.5347488
-3.5737398 4.7710581 3.2161558
-6.1304307 4.6657448 3.1184704
-5.613481 4.8435783 3.3069844
-4.9956403 5.0143681 3.3437138
-4.3288164 5.1569386 3.2525151
-3.7445867 5.215374 3.096091
-2.1842673 -6.3634357 3.3197453
-1.5794491 -6.4349957 3.3058274
-0.8603273 -6.3050742 3.2496803
-0.19201176 -6.1395288 3.2235129
0.45398146 -6.0127621 3.1758547
1.0977063 -5.9607778 3.187402
1.7532936 -5.5006375 2.9267628
2.3957698 -5.4418607 2.9236095
3.2676761 -5.5607619 3.0924184
3.9717834 -5.4418769 2.9428129
4.6342697 -5.3233328 2.7501009
5.312573 -5.1810179 2.714047
5.9289265 -4.8840561 2.6131015
6.2888556 -4.5869255 2.3455665
-2.1871035 -5.7925925 3.3243103
-1.859925 -5.4738588 3.5403762
-1.02183 -5.2918005 3.5723574
-0.27552611 -5.3789754 3.4458179
0.29442686 -5.2234173 3.3305387
2.0706751 -5.3075256 2.8466749
2.4898446 -5.2210813 2.7817383
3.032316 -5.1122336 2.6424577
5.4210606 -4.0484776 3.0459754
5.941164 -4.3255701 2.8670475
6.3607044 -4.1807761 2.480377
-1.6750681 -5.1314883 3.2520471
-1.1465075 -4.9906073 3.2066209
-0.47439367 -4.7472286 3.1489763
0.24015291 -4.6198034 3.0975664
0.84521145 -4.3938589 3.1361225
1.4584409 -4.1689034 3.2675388
5.8611679 -3.7368395 2.8613932
6.3708968 -3.5195889 2.5194266
6.7708435 -3.2135217 2.2953238
-0.59601432 -4.0111451 3.130161
0.09452869 -3.9331558 3.1205883
0.74610633 -3.7951446 2.874578
1.3447964 -3.6784742 3.1425691
6.4083924 -2.8660128 2.8078902
6.8599982 -2.6609032 2.4737012
-1.182569 -3.1573088 3.0860214
-0.71597868 -3.297544 3.2534137
-0.011537179 -3.2321477 3.3266084
0.65376586 -3.1246395 2.9981728
1.2019136 -3.0279438 3.2276299
6.4532385 -2.1292868 2.9491298
6.8695331 -2.0159528 2.5963027
7.1922488 -1.7490295 2.2912786
-3.3724439 -2.7302253 3.2647293
-2.8361607 -2.7991893 3.3236356
-2.196799 -2.8170218 3.3627288
-1.4908059 -2.7406206 3.3326068
-0.81534821 -2.6568224 3.4593489
-0.12466703 -2.5375957 3.4331274
0.58794206 -2.3938057 3.2352023
1.0248588 -2.4683111 3.3929174
6.3103533 -1.4559411 2.9835458
6.7636032 -1.2900339 2.6539609
7.1039939 -1.2189521 2.3261929
-3.5897112 -2.3306878 3.4548275
-3.000591 -2.3178909 3.6332877
-2.3254964 -2.2487385 3.7396033
-1.5898554 -2.1774125 3.7152159
-0.92255932 -1.9637382 3.6203938
-0.23845671 -1.843437 3.5352428
0.42581761 -1.7672883 3.4024918
6.684062 -0.55557913 2.7903864
6.992558 -0.48775464 2.386914
-4.2711225 -1.6886854 3.4696009
-3.7848215 -1.7449696 3.6686809
-3.1914773 -1.7425122 3.9044917
-2.5163138 -1.7200294 3.8817418
-0.93833596 -1.2963759 3.6676545
-0.34901971 -1.1490378 3.6614223
0.18172096 -1.0588262 3.5220227
6.1621494 0.084090963 3.1266387
6.5653992 0.10468765 2.8235199
6.8670344 0.17121644 2.4111619
-4.3770056 -1.1460128 3.5132289
-3.9054039 -1.0789772 3.778641
-3.3721776 -0.90581304 3.9304583
-2.0076344 -0.48788077 3.8972349
-1.1241601 -0.55863786 3.7196231
-0.53833586 -0.50181168 3.6912673
0.14015742 -0.63207752 3.6870704
6.0525341 0.67806184 3.1533179
6.4319196 0.76204568 2.8385601
6.7644148 0.76671273 2.4478493
-4.4054899 -0.63738781 3.4929025
-4.0536914 -0.36538774 3.6693289
-3.3451355 -0.24893801 3.8492875
-2.6505878 -0.087951526 3.8809745
-2.0161803 0.043308005 3.8148777
-1.2741691 0.12582661 3.7004635
-0.60656232 0.24255468 3.6228421
0.093626484 0.50207895 3.6596305
0.6257388 0.51456589 3.6668122
1.3771027 0.80772686 3.6066768
5.1739631 1.589401 3.2912209
5.6778526 1.4483674 3.0515184
6.1790462 1.3747493 2.7262895
-4.7029424 0.56211889 3.676506
-4.1598296 0.37600762 3.5316081
-3.4863787 0.44138616 3.6299889
-2.7912557 0.56513959 3.6677475
-2.1081922 0.68649751 3.5673654
-1.4176981 0.80907911 3.5422094
-0.74316627 0.92834574 3.3457685
-0.045639157 1.0501109 3.4152048
0.65513951 1.1740398 3.513021
1.3716846 1.2800087 3.5283895
2.0321555 1.3849082 3.5430698
2.72031 1.6144719 3.4880598
3.3805563 1.6962267 3.3191459
4.0657382 1.9128392 3.206912
4.8238401 1.9686562 3.1113272
5.4312367 2.0339656 2.7957189
5.8473439 1.8785238 2.592613
-6.1444612 0.94590992 3.9728427
-5.6378436 0.6927616 3.9737983
-4.9508882 0.61442685 3.9510763
-4.1408796 0.76562101 3.8674519
-3.5624187 1.089412 3.6664395
-3.0077229 1.1741997 3.4174879
-2.1565292 1.1609956 3.3412323
-1.5642273 1.2750528 3.3002698
-0.81189626 1.3480607 3.1742408
-0.092836961 1.5062581 3.1603527
0.58251697 1.7805355 3.2189822
1.2039638 1.9880275 3.2745471
1.9049084 2.1094387 3.3641534
2.5951371 2.2307875 3.3513846
3.3150907 2.3398442 3.2042429
3.9416568 2.4581301 2.9516706
4.5916924 2.4973509 2.8139734
5.1565399 2.4600153 2.6794503
-6.3740644 1.3875846 4.0430789
-3.368233 1.7741566 3.9866743
-3.0279543 1.9848301 3.6774993
-2.6752214 2.252008 3.408448
1.3162799 2.4996703 3.0555997
1.7978647 2.6587536 3.0801597
2.4725978 2.8289762 3.0653286
3.1495085 2.8700602 2.9791226
3.7015121 2.8709428 2.8416965
-6.3945103 2.0770087 4.0365005
-6.200139 2.3388479 4.3391337
-3.5667171 2.6899521 4.0247126
-3.1285765 2.6388764 3.7136002
-2.7267811 2.5336165 3.4202857
-6.3616233 2.6579244 3.902205
-6.2405024 2.8801744 4.1626415
-3.8369963 3.2689011 3.8800375
-3.3763275 3.1538424 3.5724568
-6.1586189 3.503448 4.0744605
-5.705915 3.8295743 4.3193469
-4.4614015 4.1350789 4.2987742
-4.0379424 3.9566519 3.916672
-3.7794037 4.2886057 3.5736229
-6.0290651 4.0354376 3.8853185
-5.5246401 4.2962456 4.0450573
-4.8332953 4.5023465 4.0454817
-4.2085295 4.5683084 3.818975
-3.8211138 4.5740671 3.5913076
-4.5254478 4.8980856 3.6618373
-1.5501034 -6.2583952 3.8211584
-0.89161211 -6.1253676 3.7904601
-0.30614012 -5.9688272 3.6146731
0.67230874 -5.8545303 3.6935377
1.1838309 -5.9020429 3.7949846
1.9323955 -5.8220196 3.6865625
2.641135 -5.6829271 3.6590018
3.2914124 -5.4926295 3.6017866
3.9198396 -5.3263092 3.444958
4.5880232 -5.1540146 3.2608654
5.2710257 -4.9322047 3.1232522
-1.610912 -5.7626314 3.8223743
-1.0058365 -5.5910592 3.7694507
-0.50202781 -5.6049137 3.6067708
0.60457712 -5.3574386 3.7001131
0.98123294 -5.0815215 3.960875
1.4567901 -4.7912507 4.0809102
2.699815 -4.7924323 3.9469912
3.1725338 -4.8237367 3.7732573
3.8403389 -4.694489 3.5160048
4.4933176 -4.5684457 3.3692398
5.1954756 -4.4008474 3.1687028
5.684845 -4.4266572 3.0448713
1.1195418 -4.6294727 3.7181563
1.6951793 -4.3802171 3.7808731
2.3454585 -4.2097278 3.8161578
3.0152576 -4.237957 3.8173654
3.7419431 -4.1718059 3.8119051
4.5119562 -4.069068 3.7651446
5.1371531 -3.7744172 3.5102098
5.6723332 -3.5056086 3.2053034
1.7289991 -3.6025968 3.6244001
2.111851 -3.5955212 3.9718463
5.2467556 -3.1130786 3.7147439
5.7139564 -2.9785905 3.4702661
6.1097145 -2.7926817 3.1663225
1.5879222 -2.9196868 3.7720883
1.8764215 -2.9961472 4.0614491
5.1999497 -2.6392422 3.7847035
5.6038761 -2.3115227 3.5978725
6.1191521 -2.2023737 3.1944981
1.2666675 -2.2881215 3.8793387
5.6099305 -1.6098324 3.7148461
5.9935279 -1.4260942 3.3230493
-2.1041877 -1.9387386 3.9002633
-1.6375018 -1.8435848 3.8447244
0.72568399 -1.5766436 3.8140392
0.98555726 -1.7173938 4.0689182
5.613287 -0.87818271 3.8164032
5.9922338 -0.70884627 3.4719131
6.3212838 -0.56679899 3.1443689
-2.9758856 -1.508934 4.0128188
-2.3600366 -1.4346924 3.9704983
-1.7080554 -1.3847719 3.9589744
-1.2453032 -1.2144569 3.8664701
0.58694959 -0.99602729 3.9258821
0.78394985 -0.86464685 4.2458863
5.310699 -0.077470049 3.825639
5.875165 -0.056067809 3.4877014
-3.0543306 -0.98937374 4.0547824
-2.5138645 -0.81369263 4.0529361
-1.815285 -0.71361125 3.940594
-1.3982615 -0.726192 3.8770823
-0.25676978 -0.32108814 3.7801464
0.27427691 -0.31904966 3.7792182
0.83632135 -0.16629653 4.0644913
4.5370641 0.6795119 3.9680369
5.0794001 0.51244467 3.7296872
5.7155933 0.60332429 3.4483595
-2.6428201 -0.41009754 3.975158
-1.7479496 -0.18905197 3.9140618
-1.5124621 -0.20837255 3.871098
-0.23808275 0.014897302 3.7675622
0.11449836 0.17303675 3.7771342
0.87357146 0.44260395 3.7567677
1.5286329 0.581442 3.8852754
2.2084837 0.8586694 3.8567846
2.8856938 1.0070697 3.7887924
3.5418327 1.0516599 3.8040242
4.2788668 1.077824 3.8011973
4.9464016 1.2225878 3.571234
5.4902167 1.1490531 3.3843722
2.3004818 1.5129099 3.5745282
2.7558765 1.3971006 3.5308368
3.6275487 1.4018589 3.5112453
4.1564765 1.5708777 3.5421264
4.7114239 1.6571054 3.4401379
-5.5615892 0.92857033 4.4868064
-4.8597465 0.90528613 4.525414
-4.2005019 0.95897716 4.5545053
-3.6901529 1.2692124 4.4346042
-6.1367607 1.4513733 4.4628773
-5.696629 1.4303359 4.7188969
-5.0598736 1.497818 4.8506622
-3.5395923 1.8444122 4.5177474
-6.209703 1.9305584 4.4384217
-5.8302546 2.1611421 4.7677846
-4.2000251 2.6807172 4.8589783
-3.7684104 2.5041966 4.535109
-5.8606052 2.8177812 4.7007704
-5.3751059 3.0628371 4.9626703
-4.4543772 3.1325238 4.8091664
-4.0834184 3.1601417 4.4107881
-5.815743 3.359925 4.5335312
-5.3516073 3.6008489 4.6755142
-4.6736932 3.755403 4.5982132
-4.2524767 3.7371957 4.362556
-5.1662087 4.0330701 4.4588938
-5.0673461 4.0491924 4.4614015
1.3618841 -5.7582045 4.2501731
1.9740136 -5.6604152 4.2652144
2.5564981 -5.4767022 4.0850544
1.2905701 -5.3074231 4.2504768
1.8503059 -5.0235333 4.3010392
2.42924 -4.9224358 4.1200504
1.8242841 -4.5786314 4.1002727
3.0555494 -3.9268463 4.057445
3.7622557 -3.8816459 4.1284733
4.4046535 -3.8125937 3.9968798
4.8785276 -3.5971854 3.8875761
2.3957903 -3.4210577 4.1548991
2.9704664 -3.473546 4.255928
3.6687555 -3.3817074 4.2995415
4.3503213 -3.2643316 4.1691294
4.9185038 -3.1379678 3.9840505
1.7481813 -2.6304126 4.2112527
2.2222526 -2.8940041 4.3189597
2.8656204 -2.8037095 4.5092702
3.5665967 -2.686408 4.527688
4.2676654 -2.5678124 4.4364614
4.8841658 -2.4249027 4.1041727
5.2726212 -2.1524203 3.8950996
1.5658076 -2.1561728 4.339066
2.0519514 -2.2228911 4.5024619
2.7447827 -2.1416798 4.6002131
3.509352 -2.0684724 4.6188488
4.1348958 -1.8842402 4.4773083
4.8123493 -1.7099639 4.2480178
5.2824001 -1.5607765 3.9640262
1.2750837 -1.5337733 4.5436425
1.9587893 -1.5592772 4.7220902
2.6161852 -1.454406 4.7820272
3.3760083 -1.1058011 4.7473779
4.0210495 -1.198643 4.553534
4.6786938 -1.0176685 4.3365726
5.294776 -0.84990054 4.0561557
1.1470531 -0.91094095 4.6242285
1.8489945 -0.87648016 4.8470807
2.5331659 -0.72891849 4.8120241
3.2233632 -0.63339442 4.7415333
3.9357703 -0.52368623 4.617373
4.5773468 -0.32539791 4.2966719
5.1084824 -0.33816981 4.007926
1.1592103 -0.3056708 4.494719
1.6973865 -0.13570644 4.6750193
2.4019163 -0.051784024 4.7415237
3.0974767 0.070929989 4.6569281
3.7680635 0.22717978 4.4650226
4.4404187 0.30887055 4.2193046
4.8720579 0.27904278 4.0069666
1.7098975 0.35948396 4.3625793
2.3313913 0.51542228 4.4140072
2.9786088 0.65026921 4.3771667
3.5462129 0.74009985 4.2313671
-4.6211624 1.217804 4.9421377
-4.2090359 1.2516029 4.9463596
-4.7901282 1.6349773 5.0477872
-4.2732739 1.7132212 5.1225057
-3.817394 1.8109908 4.9671025
-5.459971 2.2868485 5.0879602
-5.1057816 2.2452836 5.16645
-4.4033799 2.37551 5.0918512
-3.9538095 2.2564361 4.9618602
